4.4 29.0 3.5340
4.5 1.0 3.1795
4.5 1.1 3.2079
4.5 1.2 3.2285
4.5 1.3 3.2471
4.5 1.4 3.2600
4.5 1.5 3.2677
4.5 1.6 3.2742
4.5 1.7 3.2719
4.5 1.8 3.2598
4.5 1.9 3.2485
4.5 2.0 3.2293
4.5 2.1 3.2132
4.5 2.2 3.2022
4.5 2.3 3.1885
4.5 2.4 3.1750
4.5 2.5 3.1690
4.5 2.6 3.1692
4.5 2.7 3.1668
4.5 2.8 3.1643
4.5 2.9 3.1619
4.5 3.0 3.1595
4.5 3.1 3.1570
4.5 3.2 3.1546
4.5 3.3 3.1522
4.5 3.4 3.1498
4.5 3.5 3.1418
4.5 3.6 3.1331
4.5 3.7 3.1248
4.5 3.8 3.1179
4.5 3.9 3.1111
4.5 4.0 3.1042
4.5 4.1 3.1020
4.5 4.2 3.0933
4.5 4.3 3.0869
4.5 4.4 3.0787
4.5 4.5 3.0774
4.5 4.6 3.0735
4.5 4.7 3.0645
4.5 4.8 3.0575
4.5 4.9 3.0541
4.5 5.0 3.0520
4.5 5.1 3.0448
4.5 5.2 3.0375
4.5 5.3 3.0303
4.5 5.4 3.0228
4.5 5.5 3.0099
4.5 5.6 2.9969
4.5 5.7 2.9850
4.5 5.8 2.9719
4.5 5.9 2.9587
4.5 6.0 2.9564
4.5 6.1 2.9570
4.5 6.2 2.9577
4.5 6.3 2.9595
4.5 6.4 2.9621
4.5 6.5 2.9632
4.5 6.6 2.9638
4.5 6.7 2.9644
4.5 6.8 2.9649
4.5 6.9 2.9654
4.5 7.0 2.9659
4.5 7.1 2.9664
4.5 7.2 2.9674
4.5 7.3 2.9701
4.5 7.4 2.9727
4.5 7.5 2.9751
4.5 7.6 2.9765
4.5 7.7 2.9774
4.5 7.8 2.9795
4.5 7.9 2.9817
4.5 8.0 2.9845
4.5 8.1 2.9883
4.5 8.2 2.9921
4.5 8.3 2.9950
4.5 8.4 2.9979
4.5 8.5 3.0008
4.5 8.6 3.0042
4.5 8.7 3.0050
4.5 8.8 3.0048
4.5 8.9 3.0008
4.5 9.0 2.9967
4.5 9.1 2.9930
4.5 9.2 2.9899
4.5 9.3 2.9868
4.5 9.4 2.9838
4.5 9.5 2.9793
4.5 9.6 2.9760
4.5 9.7 2.9729
4.5 9.8 2.9699
4.5 9.9 2.9669
4.5 10.0 2.9705
4.5 10.1 2.9795
4.5 10.2 2.9880
4.5 10.3 2.9961
4.5 10.4 3.0042
4.5 10.5 3.0123
4.5 10.6 3.0203
4.5 10.7 3.0284
4.5 10.8 3.0371
4.5 10.9 3.0427
4.5 11.0 3.0484
4.5 11.1 3.0540
4.5 11.2 3.0597
4.5 11.3 3.0660
4.5 11.4 3.0758
4.5 11.5 3.0847
4.5 11.6 3.0967
4.5 11.7 3.0889
4.5 11.8 3.0763
4.5 11.9 3.0637
4.5 12.0 3.0511
4.5 12.1 3.0386
4.5 12.2 3.0328
4.5 12.3 3.0287
4.5 12.4 3.0304
4.5 12.5 3.0334
4.5 12.6 3.0364
4.5 12.7 3.0394
4.5 12.8 3.0424
4.5 12.9 3.0454
4.5 13.0 3.0484
4.5 13.1 3.0515
4.5 13.2 3.0545
4.5 13.3 3.0588
4.5 13.4 3.0573
4.5 13.5 3.0679
4.5 13.6 3.0799
4.5 13.7 3.0919
4.5 13.8 3.1017
4.5 13.9 3.1096
4.5 14.0 3.1232
4.5 14.1 3.1245
4.5 14.2 3.1283
4.5 14.3 3.1321
4.5 14.4 3.1359
4.5 14.5 3.1400
4.5 14.6 3.1434
4.5 14.7 3.1467
4.5 14.8 3.1425
4.5 14.9 3.1391
4.5 15.0 3.1358
4.5 15.1 3.1333
4.5 15.2 3.1317
4.5 15.3 3.1308
4.5 15.4 3.1259
4.5 15.5 3.1209
4.5 15.6 3.1160
4.5 15.7 3.1235
4.5 15.8 3.1296
4.5 15.9 3.1361
4.5 16.0 3.1419
4.5 16.1 3.1514
4.5 16.2 3.1534
4.5 16.3 3.1566
4.5 16.4 3.1507
4.5 16.5 3.1434
4.5 16.6 3.1351
4.5 16.7 3.1268
4.5 16.8 3.1176
4.5 16.9 3.1034
4.5 17.0 3.0928
4.5 17.1 3.0855
4.5 17.2 3.0783
4.5 17.3 3.0712
4.5 17.4 3.0641
4.5 17.5 3.0608
4.5 17.6 3.0608
4.5 17.7 3.0568
4.5 17.8 3.0520
4.5 17.9 3.0472
4.5 18.0 3.0421
4.5 18.1 3.0331
4.5 18.2 3.0265
4.5 18.3 3.0200
4.5 18.4 3.0135
4.5 18.5 3.0067
4.5 18.6 2.9991
4.5 18.7 2.9916
4.5 18.8 2.9895
4.5 18.9 2.9852
4.5 19.0 2.9762
4.5 19.1 2.9671
4.5 19.2 2.9599
4.5 19.3 2.9568
4.5 19.4 2.9564
4.5 19.5 2.9560
4.5 19.6 2.9544
4.5 19.7 2.9537
4.5 19.8 2.9526
4.5 19.9 2.9499
4.5 20.0 2.9469
4.5 20.1 2.9370
4.5 20.2 2.9292
4.5 20.3 2.9214
4.5 20.4 2.9122
4.5 20.5 2.9034
4.5 20.6 2.8962
4.5 20.7 2.8898
4.5 20.8 2.8856
4.5 20.9 2.8819
4.5 21.0 2.8786
4.5 21.1 2.8752
4.5 21.2 2.8729
4.5 21.3 2.8822
4.5 21.4 2.8929
4.5 21.5 2.9037
4.5 21.6 2.9129
4.5 21.7 2.9195
4.5 21.8 2.9338
4.5 21.9 2.9437
4.5 22.0 2.9501
4.5 22.1 2.9576
4.5 22.2 2.9621
4.5 22.3 2.9652
4.5 22.4 2.9683
4.5 22.5 2.9653
4.5 22.6 2.9657
4.5 22.7 2.9729
4.5 22.8 2.9783
4.5 22.9 2.9794
4.5 23.0 2.9853
4.5 23.1 2.9906
4.5 23.2 2.9940
4.5 23.3 2.9995
4.5 23.4 3.0058
4.5 23.5 3.0121
4.5 23.6 3.0210
4.5 23.7 3.0271
4.5 23.8 3.0298
4.5 23.9 3.0325
4.5 24.0 3.0352
4.5 24.1 3.0383
4.5 24.2 3.0417
4.5 24.3 3.0422
4.5 24.4 3.0337
4.5 24.5 3.0290
4.5 24.6 3.0275
4.5 24.7 3.0291
4.5 24.8 3.0179
4.5 24.9 3.0201
4.5 25.0 3.0235
4.5 25.1 3.0269
4.5 25.2 3.0303
4.5 25.3 3.0337
4.5 25.4 3.0376
4.5 25.5 3.0445
4.5 25.6 3.0522
4.5 25.7 3.0617
4.5 25.8 3.0728
4.5 25.9 3.0865
4.5 26.0 3.0979
4.5 26.1 3.1093
4.5 26.2 3.1207
4.5 26.3 3.1321
4.5 26.4 3.1430
4.5 26.5 3.1477
4.5 26.6 3.1478
4.5 26.7 3.1475
4.5 26.8 3.1536
4.5 26.9 3.1622
4.5 27.0 3.1708
4.5 27.1 3.1804
4.5 27.2 3.1925
4.5 27.3 3.2059
4.5 27.4 3.2225
4.5 27.5 3.2369
4.5 27.6 3.2517
4.5 27.7 3.2691
4.5 27.8 3.2887
4.5 27.9 3.3086
4.5 28.0 3.3272
4.5 28.1 3.3445
4.5 28.2 3.3622
4.5 28.3 3.3826
4.5 28.4 3.4049
4.5 28.5 3.4334
4.5 28.6 3.4565
4.5 28.7 3.4720
4.5 28.8 3.4855
4.5 28.9 3.4940
4.5 29.0 3.4982
4.6 1.0 3.1452
4.6 1.1 3.1642
4.6 1.2 3.1809
4.6 1.3 3.1920
4.6 1.4 3.2051
4.6 1.5 3.2137
4.6 1.6 3.2250
4.6 1.7 3.2236
4.6 1.8 3.2120
4.6 1.9 3.2004
4.6 2.0 3.1889
4.6 2.1 3.1799
4.6 2.2 3.1714
4.6 2.3 3.1568
4.6 2.4 3.1441
4.6 2.5 3.1371
4.6 2.6 3.1323
4.6 2.7 3.1298
4.6 2.8 3.1273
4.6 2.9 3.1248
4.6 3.0 3.1224
4.6 3.1 3.1200
4.6 3.2 3.1175
4.6 3.3 3.1151
4.6 3.4 3.1127
4.6 3.5 3.1059
4.6 3.6 3.0972
4.6 3.7 3.0891
4.6 3.8 3.0811
4.6 3.9 3.0741
4.6 4.0 3.0673
4.6 4.1 3.0644
4.6 4.2 3.0456
4.6 4.3 3.0367
4.6 4.4 3.0330
4.6 4.5 3.0369
4.6 4.6 3.0408
4.6 4.7 3.0353
4.6 4.8 3.0341
4.6 4.9 3.0291
4.6 5.0 3.0293
4.6 5.1 3.0219
4.6 5.2 3.0146
4.6 5.3 3.0073
4.6 5.4 2.9995
4.6 5.5 2.9854
4.6 5.6 2.9725
4.6 5.7 2.9602
4.6 5.8 2.9458
4.6 5.9 2.9322
4.6 6.0 2.9251
4.6 6.1 2.9258
4.6 6.2 2.9269
4.6 6.3 2.9281
4.6 6.4 2.9300
4.6 6.5 2.9306
4.6 6.6 2.9310
4.6 6.7 2.9315
4.6 6.8 2.9320
4.6 6.9 2.9325
4.6 7.0 2.9330
4.6 7.1 2.9335
4.6 7.2 2.9349
4.6 7.3 2.9376
4.6 7.4 2.9400
4.6 7.5 2.9421
4.6 7.6 2.9432
4.6 7.7 2.9445
4.6 7.8 2.9452
4.6 7.9 2.9469
4.6 8.0 2.9505
4.6 8.1 2.9532
4.6 8.2 2.9561
4.6 8.3 2.9590
4.6 8.4 2.9619
4.6 8.5 2.9648
4.6 8.6 2.9683
4.6 8.7 2.9710
4.6 8.8 2.9709
4.6 8.9 2.9678
4.6 9.0 2.9648
4.6 9.1 2.9617
4.6 9.2 2.9586
4.6 9.3 2.9553
4.6 9.4 2.9519
4.6 9.5 2.9471
4.6 9.6 2.9417
4.6 9.7 2.9383
4.6 9.8 2.9350
4.6 9.9 2.9331
4.6 10.0 2.9361
4.6 10.1 2.9461
4.6 10.2 2.9541
4.6 10.3 2.9621
4.6 10.4 2.9702
4.6 10.5 2.9783
4.6 10.6 2.9864
4.6 10.7 2.9947
4.6 10.8 3.0004
4.6 10.9 3.0060
4.6 11.0 3.0117
4.6 11.1 3.0173
4.6 11.2 3.0229
4.6 11.3 3.0286
4.6 11.4 3.0342
4.6 11.5 3.0428
4.6 11.6 3.0457
4.6 11.7 3.0426
4.6 11.8 3.0311
4.6 11.9 3.0185
4.6 12.0 3.0059
4.6 12.1 2.9954
4.6 12.2 2.9920
4.6 12.3 2.9955
4.6 12.4 2.9971
4.6 12.5 2.9985
4.6 12.6 3.0013
4.6 12.7 3.0043
4.6 12.8 3.0074
4.6 12.9 3.0104
4.6 13.0 3.0134
4.6 13.1 3.0169
4.6 13.2 3.0209
4.6 13.3 3.0209
4.6 13.4 3.0192
4.6 13.5 3.0229
4.6 13.6 3.0349
4.6 13.7 3.0468
4.6 13.8 3.0589
4.6 13.9 3.0707
4.6 14.0 3.0778
4.6 14.1 3.0816
4.6 14.2 3.0853
4.6 14.3 3.0890
4.6 14.4 3.0922
4.6 14.5 3.0954
4.6 14.6 3.0986
4.6 14.7 3.1023
4.6 14.8 3.1027
4.6 14.9 3.0993
4.6 15.0 3.0960
4.6 15.1 3.0932
4.6 15.2 3.0911
4.6 15.3 3.0895
4.6 15.4 3.0879
4.6 15.5 3.0863
4.6 15.6 3.0838
4.6 15.7 3.0867
4.6 15.8 3.0901
4.6 15.9 3.0956
4.6 16.0 3.1010
4.6 16.1 3.1069
4.6 16.2 3.1144
4.6 16.3 3.1183
4.6 16.4 3.1157
4.6 16.5 3.1133
4.6 16.6 3.1050
4.6 16.7 3.0955
4.6 16.8 3.0778
4.6 16.9 3.0636
4.6 17.0 3.0493
4.6 17.1 3.0409
4.6 17.2 3.0336
4.6 17.3 3.0263
4.6 17.4 3.0191
4.6 17.5 3.0120
4.6 17.6 3.0116
4.6 17.7 3.0063
4.6 17.8 3.0015
4.6 17.9 3.0002
4.6 18.0 2.9975
4.6 18.1 2.9928
4.6 18.2 2.9884
4.6 18.3 2.9833
4.6 18.4 2.9768
4.6 18.5 2.9703
4.6 18.6 2.9633
4.6 18.7 2.9558
4.6 18.8 2.9539
4.6 18.9 2.9527
4.6 19.0 2.9436
4.6 19.1 2.9346
4.6 19.2 2.9255
4.6 19.3 2.9188
4.6 19.4 2.9188
4.6 19.5 2.9194
4.6 19.6 2.9197
4.6 19.7 2.9195
4.6 19.8 2.9253
4.6 19.9 2.9209
4.6 20.0 2.9161
4.6 20.1 2.9094
4.6 20.2 2.9017
4.6 20.3 2.8916
4.6 20.4 2.8843
4.6 20.5 2.8771
4.6 20.6 2.8719
4.6 20.7 2.8676
4.6 20.8 2.8634
4.6 20.9 2.8594
4.6 21.0 2.8560
4.6 21.1 2.8542
4.6 21.2 2.8535
4.6 21.3 2.8537
4.6 21.4 2.8644
4.6 21.5 2.8705
4.6 21.6 2.8754
4.6 21.7 2.8897
4.6 21.8 2.9040
4.6 21.9 2.9166
4.6 22.0 2.9248
4.6 22.1 2.9330
4.6 22.2 2.9378
4.6 22.3 2.9400
4.6 22.4 2.9388
4.6 22.5 2.9340
4.6 22.6 2.9335
4.6 22.7 2.9346
4.6 22.8 2.9418
4.6 22.9 2.9426
4.6 23.0 2.9493
4.6 23.1 2.9552
4.6 23.2 2.9586
4.6 23.3 2.9621
4.6 23.4 2.9683
4.6 23.5 2.9757
4.6 23.6 2.9851
4.6 23.7 2.9946
4.6 23.8 2.9991
4.6 23.9 3.0018
4.6 24.0 3.0046
4.6 24.1 3.0080
4.6 24.2 3.0114
4.6 24.3 3.0149
4.6 24.4 3.0062
4.6 24.5 2.9977
4.6 24.6 2.9943
4.6 24.7 2.9954
4.6 24.8 2.9867
4.6 24.9 2.9843
4.6 25.0 2.9819
4.6 25.1 2.9844
4.6 25.2 2.9912
4.6 25.3 2.9981
4.6 25.4 3.0050
4.6 25.5 3.0126
4.6 25.6 3.0201
4.6 25.7 3.0285
4.6 25.8 3.0370
4.6 25.9 3.0488
4.6 26.0 3.0608
4.6 26.1 3.0733
4.6 26.2 3.0859
4.6 26.3 3.0968
4.6 26.4 3.1052
4.6 26.5 3.1110
4.6 26.6 3.1114
4.6 26.7 3.1116
4.6 26.8 3.1178
4.6 26.9 3.1269
4.6 27.0 3.1376
4.6 27.1 3.1496
4.6 27.2 3.1617
4.6 27.3 3.1739
4.6 27.4 3.1873
4.6 27.5 3.2009
4.6 27.6 3.2190
4.6 27.7 3.2390
4.6 27.8 3.2596
4.6 27.9 3.2772
4.6 28.0 3.2969
4.6 28.1 3.3161
4.6 28.2 3.3338
4.6 28.3 3.3540
4.6 28.4 3.3747
4.6 28.5 3.4005
4.6 28.6 3.4213
4.6 28.7 3.4348
4.6 28.8 3.4485
4.6 28.9 3.4607
4.6 29.0 3.4650
4.7 1.0 3.1010
4.7 1.1 3.1236
4.7 1.2 3.1328
4.7 1.3 3.1572
4.7 1.4 3.1533
4.7 1.5 3.1646
4.7 1.6 3.1683
4.7 1.7 3.1744
4.7 1.8 3.1642
4.7 1.9 3.1526
4.7 2.0 3.1427
4.7 2.1 3.1341
4.7 2.2 3.1256
4.7 2.3 3.1171
4.7 2.4 3.1099
4.7 2.5 3.1035
4.7 2.6 3.0986
4.7 2.7 3.0933
4.7 2.8 3.0907
4.7 2.9 3.0881
4.7 3.0 3.0855
4.7 3.1 3.0830
4.7 3.2 3.0805
4.7 3.3 3.0780
4.7 3.4 3.0756
4.7 3.5 3.0701
4.7 3.6 3.0618
4.7 3.7 3.0538
4.7 3.8 3.0459
4.7 3.9 3.0379
4.7 4.0 3.0303
4.7 4.1 3.0207
4.7 4.2 3.0110
4.7 4.3 3.0006
4.7 4.4 2.9934
4.7 4.5 2.9975
4.7 4.6 3.0036
4.7 4.7 3.0083
4.7 4.8 3.0073
4.7 4.9 3.0041
4.7 5.0 3.0043
4.7 5.1 2.9989
4.7 5.2 2.9917
4.7 5.3 2.9838
4.7 5.4 2.9758
4.7 5.5 2.9679
4.7 5.6 2.9480
4.7 5.7 2.9354
4.7 5.8 2.9196
4.7 5.9 2.9056
4.7 6.0 2.8968
4.7 6.1 2.8977
4.7 6.2 2.8994
4.7 6.3 2.9012
4.7 6.4 2.8998
4.7 6.5 2.8986
4.7 6.6 2.8981
4.7 6.7 2.8986
4.7 6.8 2.8991
4.7 6.9 2.8996
4.7 7.0 2.9001
4.7 7.1 2.9006
4.7 7.2 2.9025
4.7 7.3 2.9048
4.7 7.4 2.9081
4.7 7.5 2.9120
4.7 7.6 2.9150
4.7 7.7 2.9123
4.7 7.8 2.9104
4.7 7.9 2.9125
4.7 8.0 2.9144
4.7 8.1 2.9172
4.7 8.2 2.9201
4.7 8.3 2.9230
4.7 8.4 2.9259
4.7 8.5 2.9288
4.7 8.6 2.9324
4.7 8.7 2.9371
4.7 8.8 2.9379
4.7 8.9 2.9366
4.7 9.0 2.9335
4.7 9.1 2.9303
4.7 9.2 2.9269
4.7 9.3 2.9235
4.7 9.4 2.9201
4.7 9.5 2.9151
4.7 9.6 2.9091
4.7 9.7 2.9040
4.7 9.8 2.9035
4.7 9.9 2.9053
4.7 10.0 2.9050
4.7 10.1 2.9050
4.7 10.2 2.9126
4.7 10.3 2.9227
4.7 10.4 2.9327
4.7 10.5 2.9427
4.7 10.6 2.9527
4.7 10.7 2.9580
4.7 10.8 2.9637
4.7 10.9 2.9680
4.7 11.0 2.9732
4.7 11.1 2.9784
4.7 11.2 2.9836
4.7 11.3 2.9887
4.7 11.4 2.9939
4.7 11.5 2.9991
4.7 11.6 2.9970
4.7 11.7 2.9939
4.7 11.8 2.9859
4.7 11.9 2.9733
4.7 12.0 2.9610
4.7 12.1 2.9566
4.7 12.2 2.9531
4.7 12.3 2.9636
4.7 12.4 2.9652
4.7 12.5 2.9667
4.7 12.6 2.9682
4.7 12.7 2.9695
4.7 12.8 2.9723
4.7 12.9 2.9756
4.7 13.0 2.9796
4.7 13.1 2.9837
4.7 13.2 2.9854
4.7 13.3 2.9830
4.7 13.4 2.9811
4.7 13.5 2.9819
4.7 13.6 2.9895
4.7 13.7 3.0013
4.7 13.8 3.0131
4.7 13.9 3.0231
4.7 14.0 3.0291
4.7 14.1 3.0327
4.7 14.2 3.0364
4.7 14.3 3.0401
4.7 14.4 3.0439
4.7 14.5 3.0476
4.7 14.6 3.0520
4.7 14.7 3.0578
4.7 14.8 3.0631
4.7 14.9 3.0595
4.7 15.0 3.0562
4.7 15.1 3.0534
4.7 15.2 3.0506
4.7 15.3 3.0488
4.7 15.4 3.0472
4.7 15.5 3.0457
4.7 15.6 3.0451
4.7 15.7 3.0482
4.7 15.8 3.0513
4.7 15.9 3.0542
4.7 16.0 3.0596
4.7 16.1 3.0662
4.7 16.2 3.0735
4.7 16.3 3.0804
4.7 16.4 3.0826
4.7 16.5 3.0815
4.7 16.6 3.0739
4.7 16.7 3.0531
4.7 16.8 3.0380
4.7 16.9 3.0237
4.7 17.0 3.0095
4.7 17.1 2.9962
4.7 17.2 2.9889
4.7 17.3 2.9817
4.7 17.4 2.9744
4.7 17.5 2.9671
4.7 17.6 2.9640
4.7 17.7 2.9669
4.7 17.8 2.9699
4.7 17.9 2.9606
4.7 18.0 2.9550
4.7 18.1 2.9503
4.7 18.2 2.9456
4.7 18.3 2.9413
4.7 18.4 2.9370
4.7 18.5 2.9327
4.7 18.6 2.9270
4.7 18.7 2.9201
4.7 18.8 2.9183
4.7 18.9 2.9165
4.7 19.0 2.9110
4.7 19.1 2.9020
4.7 19.2 2.8977
4.7 19.3 2.8933
4.7 19.4 2.8887
4.7 19.5 2.8896
4.7 19.6 2.8963
4.7 19.7 2.9029
4.7 19.8 2.9090
4.7 19.9 2.8991
4.7 20.0 2.8938
4.7 20.1 2.8885
4.7 20.2 2.8789
4.7 20.3 2.8676
4.7 20.4 2.8582
4.7 20.5 2.8539
4.7 20.6 2.8497
4.7 20.7 2.8455
4.7 20.8 2.8413
4.7 20.9 2.8410
4.7 21.0 2.8393
4.7 21.1 2.8391
4.7 21.2 2.8389
4.7 21.3 2.8378
4.7 21.4 2.8428
4.7 21.5 2.8482
4.7 21.6 2.8511
4.7 21.7 2.8645
4.7 21.8 2.8797
4.7 21.9 2.8953
4.7 22.0 2.9054
4.7 22.1 2.9147
4.7 22.2 2.9195
4.7 22.3 2.9189
4.7 22.4 2.9123
4.7 22.5 2.9054
4.7 22.6 2.9022
4.7 22.7 2.9017
4.7 22.8 2.9035
4.7 22.9 2.9076
4.7 23.0 2.9136
4.7 23.1 2.9198
4.7 23.2 2.9232
4.7 23.3 2.9267
4.7 23.4 2.9307
4.7 23.5 2.9398
4.7 23.6 2.9493
4.7 23.7 2.9587
4.7 23.8 2.9684
4.7 23.9 2.9711
4.7 24.0 2.9743
4.7 24.1 2.9777
4.7 24.2 2.9811
4.7 24.3 2.9845
4.7 24.4 2.9787
4.7 24.5 2.9702
4.7 24.6 2.9617
4.7 24.7 2.9579
4.7 24.8 2.9555
4.7 24.9 2.9536
4.7 25.0 2.9520
4.7 25.1 2.9531
4.7 25.2 2.9585
4.7 25.3 2.9656
4.7 25.4 2.9732
4.7 25.5 2.9807
4.7 25.6 2.9883
4.7 25.7 2.9962
4.7 25.8 3.0040
4.7 25.9 3.0119
4.7 26.0 3.0259
4.7 26.1 3.0423
4.7 26.2 3.0561
4.7 26.3 3.0639
4.7 26.4 3.0717
4.7 26.5 3.0780
4.7 26.6 3.0810
4.7 26.7 3.0842
4.7 26.8 3.0922
4.7 26.9 3.1025
4.7 27.0 3.1119
4.7 27.1 3.1247
4.7 27.2 3.1375
4.7 27.3 3.1482
4.7 27.4 3.1589
4.7 27.5 3.1726
4.7 27.6 3.1904
4.7 27.7 3.2142
4.7 27.8 3.2381
4.7 27.9 3.2551
4.7 28.0 3.2720
4.7 28.1 3.2891
4.7 28.2 3.3055
4.7 28.3 3.3255
4.7 28.4 3.3462
4.7 28.5 3.3677
4.7 28.6 3.3842
4.7 28.7 3.3979
4.7 28.8 3.4117
4.7 28.9 3.4286
4.7 29.0 3.4323
4.8 1.0 3.0664
4.8 1.1 3.0832
4.8 1.2 3.0919
4.8 1.3 3.1005
4.8 1.4 3.1135
4.8 1.5 3.1145
4.8 1.6 3.1205
4.8 1.7 3.1228
4.8 1.8 3.1164
4.8 1.9 3.1054
4.8 2.0 3.0968
4.8 2.1 3.0883
4.8 2.2 3.0817
4.8 2.3 3.0753
4.8 2.4 3.0684
4.8 2.5 3.0693
4.8 2.6 3.0687
4.8 2.7 3.0612
4.8 2.8 3.0548
4.8 2.9 3.0516
4.8 3.0 3.0490
4.8 3.1 3.0464
4.8 3.2 3.0439
4.8 3.3 3.0413
4.8 3.4 3.0387
4.8 3.5 3.0355
4.8 3.6 3.0274
4.8 3.7 3.0196
4.8 3.8 3.0118
4.8 3.9 3.0040
4.8 4.0 2.9961
4.8 4.1 2.9876
4.8 4.2 2.9763
4.8 4.3 2.9628
4.8 4.4 2.9616
4.8 4.5 2.9658
4.8 4.6 2.9704
4.8 4.7 2.9760
4.8 4.8 2.9806
4.8 4.9 2.9792
4.8 5.0 2.9794
4.8 5.1 2.9759
4.8 5.2 2.9680
4.8 5.3 2.9601
4.8 5.4 2.9521
4.8 5.5 2.9442
4.8 5.6 2.9314
4.8 5.7 2.9110
4.8 5.8 2.8934
4.8 5.9 2.8837
4.8 6.0 2.8804
4.8 6.1 2.8779
4.8 6.2 2.8766
4.8 6.3 2.8766
4.8 6.4 2.8745
4.8 6.5 2.8723
4.8 6.6 2.8710
4.8 6.7 2.8699
4.8 6.8 2.8688
4.8 6.9 2.8677
4.8 7.0 2.8672
4.8 7.1 2.8677
4.8 7.2 2.8702
4.8 7.3 2.8742
4.8 7.4 2.8781
4.8 7.5 2.8821
4.8 7.6 2.8861
4.8 7.7 2.8842
4.8 7.8 2.8812
4.8 7.9 2.8784
4.8 8.0 2.8805
4.8 8.1 2.8823
4.8 8.2 2.8842
4.8 8.3 2.8870
4.8 8.4 2.8899
4.8 8.5 2.8927
4.8 8.6 2.8965
4.8 8.7 2.9007
4.8 8.8 2.9039
4.8 8.9 2.9053
4.8 9.0 2.9019
4.8 9.1 2.8985
4.8 9.2 2.8951
4.8 9.3 2.8917
4.8 9.4 2.8884
4.8 9.5 2.8832
4.8 9.6 2.8772
4.8 9.7 2.8737
4.8 9.8 2.8757
4.8 9.9 2.8769
4.8 10.0 2.8769
4.8 10.1 2.8768
4.8 10.2 2.8834
4.8 10.3 2.8903
4.8 10.4 2.9008
4.8 10.5 2.9090
4.8 10.6 2.9145
4.8 10.7 2.9233
4.8 10.8 2.9267
4.8 10.9 2.9301
4.8 11.0 2.9336
4.8 11.1 2.9370
4.8 11.2 2.9404
4.8 11.3 2.9439
4.8 11.4 2.9469
4.8 11.5 2.9520
4.8 11.6 2.9506
4.8 11.7 2.9460
4.8 11.8 2.9407
4.8 11.9 2.9344
4.8 12.0 2.9309
4.8 12.1 2.9259
4.8 12.2 2.9203
4.8 12.3 2.9318
4.8 12.4 2.9333
4.8 12.5 2.9349
4.8 12.6 2.9364
4.8 12.7 2.9380
4.8 12.8 2.9393
4.8 12.9 2.9424
4.8 13.0 2.9464
4.8 13.1 2.9504
4.8 13.2 2.9474
4.8 13.3 2.9450
4.8 13.4 2.9431
4.8 13.5 2.9438
4.8 13.6 2.9499
4.8 13.7 2.9585
4.8 13.8 2.9678
4.8 13.9 2.9737
4.8 14.0 2.9796
4.8 14.1 2.9837
4.8 14.2 2.9875
4.8 14.3 2.9912
4.8 14.4 2.9954
4.8 14.5 3.0015
4.8 14.6 3.0074
4.8 14.7 3.0131
4.8 14.8 3.0187
4.8 14.9 3.0197
4.8 15.0 3.0164
4.8 15.1 3.0136
4.8 15.2 3.0107
4.8 15.3 3.0082
4.8 15.4 3.0066
4.8 15.5 3.0050
4.8 15.6 3.0059
4.8 15.7 3.0090
4.8 15.8 3.0120
4.8 15.9 3.0151
4.8 16.0 3.0185
4.8 16.1 3.0243
4.8 16.2 3.0303
4.8 16.3 3.0363
4.8 16.4 3.0417
4.8 16.5 3.0422
4.8 16.6 3.0314
4.8 16.7 3.0124
4.8 16.8 2.9981
4.8 16.9 2.9839
4.8 17.0 2.9696
4.8 17.1 2.9554
4.8 17.2 2.9443
4.8 17.3 2.9371
4.8 17.4 2.9302
4.8 17.5 2.9233
4.8 17.6 2.9321
4.8 17.7 2.9395
4.8 17.8 2.9405
4.8 17.9 2.9268
4.8 18.0 2.9197
4.8 18.1 2.9126
4.8 18.2 2.9055
4.8 18.3 2.8985
4.8 18.4 2.8956
4.8 18.5 2.8931
4.8 18.6 2.8907
4.8 18.7 2.8883
4.8 18.8 2.8861
4.8 18.9 2.8839
4.8 19.0 2.8860
4.8 19.1 2.8788
4.8 19.2 2.8750
4.8 19.3 2.8713
4.8 19.4 2.8686
4.8 19.5 2.8740
4.8 19.6 2.8807
4.8 19.7 2.8873
4.8 19.8 2.8886
4.8 19.9 2.8902
4.8 20.0 2.8854
4.8 20.1 2.8772
4.8 20.2 2.8640
4.8 20.3 2.8517
4.8 20.4 2.8385
4.8 20.5 2.8327
4.8 20.6 2.8285
4.8 20.7 2.8277
4.8 20.8 2.8239
4.8 20.9 2.8306
4.8 21.0 2.8304
4.8 21.1 2.8296
4.8 21.2 2.8270
4.8 21.3 2.8313
4.8 21.4 2.8359
4.8 21.5 2.8364
4.8 21.6 2.8370
4.8 21.7 2.8457
4.8 21.8 2.8606
4.8 21.9 2.8734
4.8 22.0 2.8835
4.8 22.1 2.8941
4.8 22.2 2.8964
4.8 22.3 2.8958
4.8 22.4 2.8874
4.8 22.5 2.8797
4.8 22.6 2.8709
4.8 22.7 2.8660
4.8 22.8 2.8701
4.8 22.9 2.8745
4.8 23.0 2.8803
4.8 23.1 2.8867
4.8 23.2 2.8889
4.8 23.3 2.8902
4.8 23.4 2.8972
4.8 23.5 2.9102
4.8 23.6 2.9232
4.8 23.7 2.9316
4.8 23.8 2.9361
4.8 23.9 2.9405
4.8 24.0 2.9439
4.8 24.1 2.9474
4.8 24.2 2.9508
4.8 24.3 2.9542
4.8 24.4 2.9512
4.8 24.5 2.9427
4.8 24.6 2.9341
4.8 24.7 2.9322
4.8 24.8 2.9308
4.8 24.9 2.9298
4.8 25.0 2.9288
4.8 25.1 2.9327
4.8 25.2 2.9377
4.8 25.3 2.9465
4.8 25.4 2.9552
4.8 25.5 2.9639
4.8 25.6 2.9726
4.8 25.7 2.9815
4.8 25.8 2.9906
4.8 25.9 2.9995
4.8 26.0 3.0112
4.8 26.1 3.0241
4.8 26.2 3.0367
4.8 26.3 3.0471
4.8 26.4 3.0522
4.8 26.5 3.0577
4.8 26.6 3.0638
4.8 26.7 3.0701
4.8 26.8 3.0804
4.8 26.9 3.0908
4.8 27.0 3.1005
4.8 27.1 3.1088
4.8 27.2 3.1172
4.8 27.3 3.1257
4.8 27.4 3.1347
4.8 27.5 3.1454
4.8 27.6 3.1619
4.8 27.7 3.1891
4.8 27.8 3.2182
4.8 27.9 3.2397
4.8 28.0 3.2527
4.8 28.1 3.2696
4.8 28.2 3.2805
4.8 28.3 3.2978
4.8 28.4 3.3148
4.8 28.5 3.3326
4.8 28.6 3.3475
4.8 28.7 3.3611
4.8 28.8 3.3749
4.8 28.9 3.3923
4.8 29.0 3.3995
4.9 1.0 3.0422
4.9 1.1 3.0514
4.9 1.2 3.0553
4.9 1.3 3.0639
4.9 1.4 3.0775
4.9 1.5 3.0772
4.9 1.6 3.0732
4.9 1.7 3.0728
4.9 1.8 3.0685
4.9 1.9 3.0595
4.9 2.0 3.0528
4.9 2.1 3.0468
4.9 2.2 3.0430
4.9 2.3 3.0393
4.9 2.4 3.0360
4.9 2.5 3.0360
4.9 2.6 3.0364
4.9 2.7 3.0320
4.9 2.8 3.0246
4.9 2.9 3.0171
4.9 3.0 3.0125
4.9 3.1 3.0091
4.9 3.2 3.0052
4.9 3.3 3.0012
4.9 3.4 2.9994
4.9 3.5 2.9980
4.9 3.6 2.9941
4.9 3.7 2.9891
4.9 3.8 2.9827
4.9 3.9 2.9749
4.9 4.0 2.9672
4.9 4.1 2.9533
4.9 4.2 2.9405
4.9 4.3 2.9345
4.9 4.4 2.9363
4.9 4.5 2.9387
4.9 4.6 2.9433
4.9 4.7 2.9479
4.9 4.8 2.9492
4.9 4.9 2.9461
4.9 5.0 2.9447
4.9 5.1 2.9444
4.9 5.2 2.9435
4.9 5.3 2.9395
4.9 5.4 2.9318
4.9 5.5 2.9241
4.9 5.6 2.9126
4.9 5.7 2.8967
4.9 5.8 2.8820
4.9 5.9 2.8702
4.9 6.0 2.8639
4.9 6.1 2.8614
4.9 6.2 2.8590
4.9 6.3 2.8565
4.9 6.4 2.8537
4.9 6.5 2.8492
4.9 6.6 2.8448
4.9 6.7 2.8441
4.9 6.8 2.8407
4.9 6.9 2.8413
4.9 7.0 2.8419
4.9 7.1 2.8411
4.9 7.2 2.8415
4.9 7.3 2.8447
4.9 7.4 2.8482
4.9 7.5 2.8522
4.9 7.6 2.8561
4.9 7.7 2.8562
4.9 7.8 2.8530
4.9 7.9 2.8497
4.9 8.0 2.8465
4.9 8.1 2.8484
4.9 8.2 2.8502
4.9 8.3 2.8521
4.9 8.4 2.8539
4.9 8.5 2.8567
4.9 8.6 2.8606
4.9 8.7 2.8647
4.9 8.8 2.8722
4.9 8.9 2.8796
4.9 9.0 2.8777
4.9 9.1 2.8708
4.9 9.2 2.8655
4.9 9.3 2.8602
4.9 9.4 2.8566
4.9 9.5 2.8522
4.9 9.6 2.8485
4.9 9.7 2.8454
4.9 9.8 2.8479
4.9 9.9 2.8487
4.9 10.0 2.8509
4.9 10.1 2.8582
4.9 10.2 2.8646
4.9 10.3 2.8711
4.9 10.4 2.8780
4.9 10.5 2.8837
4.9 10.6 2.8853
4.9 10.7 2.8876
4.9 10.8 2.8944
4.9 10.9 2.8978
4.9 11.0 2.9012
4.9 11.1 2.9047
4.9 11.2 2.9081
4.9 11.3 2.9115
4.9 11.4 2.9147
4.9 11.5 2.9176
4.9 11.6 2.9184
4.9 11.7 2.9134
4.9 11.8 2.9087
4.9 11.9 2.9044
4.9 12.0 2.9009
4.9 12.1 2.8974
4.9 12.2 2.8878
4.9 12.3 2.8999
4.9 12.4 2.9014
4.9 12.5 2.9030
4.9 12.6 2.9046
4.9 12.7 2.9061
4.9 12.8 2.9077
4.9 12.9 2.9091
4.9 13.0 2.9132
4.9 13.1 2.9119
4.9 13.2 2.9095
4.9 13.3 2.9071
4.9 13.4 2.9050
4.9 13.5 2.9058
4.9 13.6 2.9115
4.9 13.7 2.9160
4.9 13.8 2.9205
4.9 13.9 2.9250
4.9 14.0 2.9302
4.9 14.1 2.9348
4.9 14.2 2.9387
4.9 14.3 2.9449
4.9 14.4 2.9510
4.9 14.5 2.9571
4.9 14.6 2.9627
4.9 14.7 2.9684
4.9 14.8 2.9740
4.9 14.9 2.9799
4.9 15.0 2.9766
4.9 15.1 2.9738
4.9 15.2 2.9709
4.9 15.3 2.9681
4.9 15.4 2.9659
4.9 15.5 2.9643
4.9 15.6 2.9667
4.9 15.7 2.9698
4.9 15.8 2.9728
4.9 15.9 2.9762
4.9 16.0 2.9796
4.9 16.1 2.9826
4.9 16.2 2.9882
4.9 16.3 2.9945
4.9 16.4 2.9972
4.9 16.5 2.9998
4.9 16.6 2.9890
4.9 16.7 2.9725
4.9 16.8 2.9583
4.9 16.9 2.9440
4.9 17.0 2.9348
4.9 17.1 2.9290
4.9 17.2 2.9197
4.9 17.3 2.9103
4.9 17.4 2.9024
4.9 17.5 2.8954
4.9 17.6 2.9002
4.9 17.7 2.9087
4.9 17.8 2.9114
4.9 17.9 2.9127
4.9 18.0 2.9056
4.9 18.1 2.8989
4.9 18.2 2.8922
4.9 18.3 2.8855
4.9 18.4 2.8788
4.9 18.5 2.8721
4.9 18.6 2.8655
4.9 18.7 2.8618
4.9 18.8 2.8606
4.9 18.9 2.8621
4.9 19.0 2.8696
4.9 19.1 2.8708
4.9 19.2 2.8618
4.9 19.3 2.8538
4.9 19.4 2.8554
4.9 19.5 2.8596
4.9 19.6 2.8650
4.9 19.7 2.8713
4.9 19.8 2.8824
4.9 19.9 2.8857
4.9 20.0 2.8815
4.9 20.1 2.8701
4.9 20.2 2.8557
4.9 20.3 2.8369
4.9 20.4 2.8232
4.9 20.5 2.8153
4.9 20.6 2.8138
4.9 20.7 2.8100
4.9 20.8 2.8198
4.9 20.9 2.8217
4.9 21.0 2.8188
4.9 21.1 2.8162
4.9 21.2 2.8198
4.9 21.3 2.8237
4.9 21.4 2.8243
4.9 21.5 2.8248
4.9 21.6 2.8253
4.9 21.7 2.8291
4.9 21.8 2.8417
4.9 21.9 2.8515
4.9 22.0 2.8634
4.9 22.1 2.8668
4.9 22.2 2.8725
4.9 22.3 2.8719
4.9 22.4 2.8639
4.9 22.5 2.8631
4.9 22.6 2.8501
4.9 22.7 2.8420
4.9 22.8 2.8483
4.9 22.9 2.8520
4.9 23.0 2.8555
4.9 23.1 2.8619
4.9 23.2 2.8638
4.9 23.3 2.8680
4.9 23.4 2.8767
4.9 23.5 2.8952
4.9 23.6 2.9103
4.9 23.7 2.9176
4.9 23.8 2.9236
4.9 23.9 2.9211
4.9 24.0 2.9194
4.9 24.1 2.9206
4.9 24.2 2.9218
4.9 24.3 2.9239
4.9 24.4 2.9236
4.9 24.5 2.9199
4.9 24.6 2.9184
4.9 24.7 2.9169
4.9 24.8 2.9153
4.9 24.9 2.9134
4.9 25.0 2.9133
4.9 25.1 2.9200
4.9 25.2 2.9245
4.9 25.3 2.9340
4.9 25.4 2.9432
4.9 25.5 2.9519
4.9 25.6 2.9605
4.9 25.7 2.9695
4.9 25.8 2.9786
4.9 25.9 2.9874
4.9 26.0 2.9995
4.9 26.1 3.0132
4.9 26.2 3.0274
4.9 26.3 3.0384
4.9 26.4 3.0445
4.9 26.5 3.0506
4.9 26.6 3.0597
4.9 26.7 3.0652
4.9 26.8 3.0707
4.9 26.9 3.0791
4.9 27.0 3.0895
4.9 27.1 3.0985
4.9 27.2 3.1069
4.9 27.3 3.1154
4.9 27.4 3.1239
4.9 27.5 3.1324
4.9 27.6 3.1449
4.9 27.7 3.1731
4.9 27.8 3.2022
4.9 27.9 3.2237
4.9 28.0 3.2414
4.9 28.1 3.2555
4.9 28.2 3.2618
4.9 28.3 3.2761
4.9 28.4 3.2825
4.9 28.5 3.2947
4.9 28.6 3.3111
4.9 28.7 3.3246
4.9 28.8 3.3381
4.9 28.9 3.3560
4.9 29.0 3.3668
5.0 1.0 3.0240
5.0 1.1 3.0344
5.0 1.2 3.0385
5.0 1.3 3.0397
5.0 1.4 3.0420
5.0 1.5 3.0414
5.0 1.6 3.0371
5.0 1.7 3.0330
5.0 1.8 3.0276
5.0 1.9 3.0239
5.0 2.0 3.0198
5.0 2.1 3.0161
5.0 2.2 3.0123
5.0 2.3 3.0086
5.0 2.4 3.0051
5.0 2.5 3.0050
5.0 2.6 3.0057
5.0 2.7 3.0080
5.0 2.8 3.0010
5.0 2.9 2.9941
5.0 3.0 2.9888
5.0 3.1 2.9834
5.0 3.2 2.9784
5.0 3.3 2.9750
5.0 3.4 2.9726
5.0 3.5 2.9741
5.0 3.6 2.9769
5.0 3.7 2.9764
5.0 3.8 2.9708
5.0 3.9 2.9632
5.0 4.0 2.9482
5.0 4.1 2.9340
5.0 4.2 2.9202
5.0 4.3 2.9144
5.0 4.4 2.9135
5.0 4.5 2.9181
5.0 4.6 2.9186
5.0 4.7 2.9202
5.0 4.8 2.9158
5.0 4.9 2.9127
5.0 5.0 2.9095
5.0 5.1 2.9064
5.0 5.2 2.9070
5.0 5.3 2.9080
5.0 5.4 2.9063
5.0 5.5 2.9022
5.0 5.6 2.8998
5.0 5.7 2.8895
5.0 5.8 2.8778
5.0 5.9 2.8684
5.0 6.0 2.8621
5.0 6.1 2.8559
5.0 6.2 2.8520
5.0 6.3 2.8495
5.0 6.4 2.8392
5.0 6.5 2.8349
5.0 6.6 2.8268
5.0 6.7 2.8246
5.0 6.8 2.8198
5.0 6.9 2.8204
5.0 7.0 2.8209
5.0 7.1 2.8173
5.0 7.2 2.8146
5.0 7.3 2.8177
5.0 7.4 2.8209
5.0 7.5 2.8242
5.0 7.6 2.8278
5.0 7.7 2.8293
5.0 7.8 2.8263
5.0 7.9 2.8233
5.0 8.0 2.8203
5.0 8.1 2.8206
5.0 8.2 2.8230
5.0 8.3 2.8255
5.0 8.4 2.8280
5.0 8.5 2.8305
5.0 8.6 2.8333
5.0 8.7 2.8382
5.0 8.8 2.8457
5.0 8.9 2.8531
5.0 9.0 2.8499
5.0 9.1 2.8469
5.0 9.2 2.8435
5.0 9.3 2.8382
5.0 9.4 2.8324
5.0 9.5 2.8259
5.0 9.6 2.8200
5.0 9.7 2.8171
5.0 9.8 2.8199
5.0 9.9 2.8254
5.0 10.0 2.8330
5.0 10.1 2.8394
5.0 10.2 2.8458
5.0 10.3 2.8523
5.0 10.4 2.8589
5.0 10.5 2.8612
5.0 10.6 2.8596
5.0 10.7 2.8609
5.0 10.8 2.8630
5.0 10.9 2.8654
5.0 11.0 2.8688
5.0 11.1 2.8722
5.0 11.2 2.8757
5.0 11.3 2.8791
5.0 11.4 2.8820
5.0 11.5 2.8844
5.0 11.6 2.8868
5.0 11.7 2.8842
5.0 11.8 2.8797
5.0 11.9 2.8753
5.0 12.0 2.8709
5.0 12.1 2.8674
5.0 12.2 2.8581
5.0 12.3 2.8680
5.0 12.4 2.8696
5.0 12.5 2.8711
5.0 12.6 2.8727
5.0 12.7 2.8742
5.0 12.8 2.8758
5.0 12.9 2.8775
5.0 13.0 2.8793
5.0 13.1 2.8790
5.0 13.2 2.8772
5.0 13.3 2.8736
5.0 13.4 2.8708
5.0 13.5 2.8736
5.0 13.6 2.8759
5.0 13.7 2.8774
5.0 13.8 2.8789
5.0 13.9 2.8811
5.0 14.0 2.8850
5.0 14.1 2.8888
5.0 14.2 2.8943
5.0 14.3 2.9005
5.0 14.4 2.9066
5.0 14.5 2.9124
5.0 14.6 2.9180
5.0 14.7 2.9236
5.0 14.8 2.9293
5.0 14.9 2.9349
5.0 15.0 2.9368
5.0 15.1 2.9339
5.0 15.2 2.9311
5.0 15.3 2.9283
5.0 15.4 2.9255
5.0 15.5 2.9244
5.0 15.6 2.9275
5.0 15.7 2.9308
5.0 15.8 2.9342
5.0 15.9 2.9376
5.0 16.0 2.9410
5.0 16.1 2.9440
5.0 16.2 2.9470
5.0 16.3 2.9500
5.0 16.4 2.9527
5.0 16.5 2.9553
5.0 16.6 2.9476
5.0 16.7 2.9376
5.0 16.8 2.9282
5.0 16.9 2.9188
5.0 17.0 2.9095
5.0 17.1 2.9001
5.0 17.2 2.8922
5.0 17.3 2.8853
5.0 17.4 2.8785
5.0 17.5 2.8725
5.0 17.6 2.8790
5.0 17.7 2.8878
5.0 17.8 2.8976
5.0 17.9 2.9038
5.0 18.0 2.8992
5.0 18.1 2.8926
5.0 18.2 2.8860
5.0 18.3 2.8794
5.0 18.4 2.8728
5.0 18.5 2.8641
5.0 18.6 2.8544
5.0 18.7 2.8426
5.0 18.8 2.8419
5.0 18.9 2.8433
5.0 19.0 2.8510
5.0 19.1 2.8548
5.0 19.2 2.8539
5.0 19.3 2.8461
5.0 19.4 2.8426
5.0 19.5 2.8461
5.0 19.6 2.8507
5.0 19.7 2.8604
5.0 19.8 2.8716
5.0 19.9 2.8830
5.0 20.0 2.8807
5.0 20.1 2.8664
5.0 20.2 2.8450
5.0 20.3 2.8198
5.0 20.4 2.8050
5.0 20.5 2.7999
5.0 20.6 2.7961
5.0 20.7 2.8038
5.0 20.8 2.8080
5.0 20.9 2.8081
5.0 21.0 2.8054
5.0 21.1 2.8082
5.0 21.2 2.8116
5.0 21.3 2.8122
5.0 21.4 2.8136
5.0 21.5 2.8150
5.0 21.6 2.8160
5.0 21.7 2.8130
5.0 21.8 2.8195
5.0 21.9 2.8310
5.0 22.0 2.8345
5.0 22.1 2.8407
5.0 22.2 2.8472
5.0 22.3 2.8481
5.0 22.4 2.8403
5.0 22.5 2.8420
5.0 22.6 2.8305
5.0 22.7 2.8222
5.0 22.8 2.8260
5.0 22.9 2.8298
5.0 23.0 2.8355
5.0 23.1 2.8439
5.0 23.2 2.8496
5.0 23.3 2.8531
5.0 23.4 2.8613
5.0 23.5 2.8813
5.0 23.6 2.9036
5.0 23.7 2.9093
5.0 23.8 2.9140
5.0 23.9 2.9118
5.0 24.0 2.9042
5.0 24.1 2.9040
5.0 24.2 2.9051
5.0 24.3 2.9032
5.0 24.4 2.9047
5.0 24.5 2.9030
5.0 24.6 2.9013
5.0 24.7 2.8995
5.0 24.8 2.9011
5.0 24.9 2.9031
5.0 25.0 2.9051
5.0 25.1 2.9093
5.0 25.2 2.9113
5.0 25.3 2.9207
5.0 25.4 2.9312
5.0 25.5 2.9398
5.0 25.6 2.9485
5.0 25.7 2.9575
5.0 25.8 2.9664
5.0 25.9 2.9756
5.0 26.0 2.9886
5.0 26.1 3.0040
5.0 26.2 3.0194
5.0 26.3 3.0313
5.0 26.4 3.0377
5.0 26.5 3.0475
5.0 26.6 3.0548
5.0 26.7 3.0603
5.0 26.8 3.0658
5.0 26.9 3.0713
5.0 27.0 3.0779
5.0 27.1 3.0883
5.0 27.2 3.0966
5.0 27.3 3.1051
5.0 27.4 3.1133
5.0 27.5 3.1201
5.0 27.6 3.1308
5.0 27.7 3.1583
5.0 27.8 3.1862
5.0 27.9 3.2082
5.0 28.0 3.2267
5.0 28.1 3.2409
5.0 28.2 3.2438
5.0 28.3 3.2496
5.0 28.4 3.2563
5.0 28.5 3.2626
5.0 28.6 3.2747
5.0 28.7 3.2882
5.0 28.8 3.3048
5.0 28.9 3.3196
5.0 29.0 3.3340
5.1 1.0 3.0055
5.1 1.1 3.0160
5.1 1.2 3.0243
5.1 1.3 3.0255
5.1 1.4 3.0271
5.1 1.5 3.0246
5.1 1.6 3.0159
5.1 1.7 3.0096
5.1 1.8 3.0141
5.1 1.9 2.9993
5.1 2.0 2.9855
5.1 2.1 2.9804
5.1 2.2 2.9783
5.1 2.3 2.9763
5.1 2.4 2.9743
5.1 2.5 2.9757
5.1 2.6 2.9774
5.1 2.7 2.9791
5.1 2.8 2.9798
5.1 2.9 2.9746
5.1 3.0 2.9693
5.1 3.1 2.9651
5.1 3.2 2.9616
5.1 3.3 2.9580
5.1 3.4 2.9549
5.1 3.5 2.9623
5.1 3.6 2.9695
5.1 3.7 2.9714
5.1 3.8 2.9673
5.1 3.9 2.9569
5.1 4.0 2.9426
5.1 4.1 2.9262
5.1 4.2 2.9153
5.1 4.3 2.9113
5.1 4.4 2.9130
5.1 4.5 2.9112
5.1 4.6 2.9043
5.1 4.7 2.9006
5.1 4.8 2.8895
5.1 4.9 2.8828
5.1 5.0 2.8797
5.1 5.1 2.8771
5.1 5.2 2.8856
5.1 5.3 2.8902
5.1 5.4 2.8854
5.1 5.5 2.8838
5.1 5.6 2.8833
5.1 5.7 2.8828
5.1 5.8 2.8760
5.1 5.9 2.8697
5.1 6.0 2.8641
5.1 6.1 2.8595
5.1 6.2 2.8549
5.1 6.3 2.8428
5.1 6.4 2.8307
5.1 6.5 2.8185
5.1 6.6 2.8091
5.1 6.7 2.8060
5.1 6.8 2.7999
5.1 6.9 2.7994
5.1 7.0 2.7984
5.1 7.1 2.7939
5.1 7.2 2.7959
5.1 7.3 2.7985
5.1 7.4 2.8010
5.1 7.5 2.8036
5.1 7.6 2.8065
5.1 7.7 2.8094
5.1 7.8 2.8077
5.1 7.9 2.8082
5.1 8.0 2.8087
5.1 8.1 2.8093
5.1 8.2 2.8112
5.1 8.3 2.8137
5.1 8.4 2.8161
5.1 8.5 2.8180
5.1 8.6 2.8210
5.1 8.7 2.8240
5.1 8.8 2.8277
5.1 8.9 2.8300
5.1 9.0 2.8268
5.1 9.1 2.8236
5.1 9.2 2.8203
5.1 9.3 2.8202
5.1 9.4 2.8111
5.1 9.5 2.8049
5.1 9.6 2.7987
5.1 9.7 2.7932
5.1 9.8 2.8002
5.1 9.9 2.8078
5.1 10.0 2.8143
5.1 10.1 2.8207
5.1 10.2 2.8276
5.1 10.3 2.8349
5.1 10.4 2.8378
5.1 10.5 2.8394
5.1 10.6 2.8377
5.1 10.7 2.8361
5.1 10.8 2.8362
5.1 10.9 2.8382
5.1 11.0 2.8390
5.1 11.1 2.8411
5.1 11.2 2.8435
5.1 11.3 2.8464
5.1 11.4 2.8489
5.1 11.5 2.8520
5.1 11.6 2.8558
5.1 11.7 2.8566
5.1 11.8 2.8507
5.1 11.9 2.8463
5.1 12.0 2.8419
5.1 12.1 2.8375
5.1 12.2 2.8339
5.1 12.3 2.8361
5.1 12.4 2.8377
5.1 12.5 2.8392
5.1 12.6 2.8408
5.1 12.7 2.8414
5.1 12.8 2.8422
5.1 12.9 2.8482
5.1 13.0 2.8513
5.1 13.1 2.8515
5.1 13.2 2.8484
5.1 13.3 2.8448
5.1 13.4 2.8439
5.1 13.5 2.8451
5.1 13.6 2.8475
5.1 13.7 2.8490
5.1 13.8 2.8505
5.1 13.9 2.8521
5.1 14.0 2.8536
5.1 14.1 2.8551
5.1 14.2 2.8566
5.1 14.3 2.8582
5.1 14.4 2.8620
5.1 14.5 2.8679
5.1 14.6 2.8775
5.1 14.7 2.8800
5.1 14.8 2.8860
5.1 14.9 2.8921
5.1 15.0 2.8984
5.1 15.1 2.8988
5.1 15.2 2.8954
5.1 15.3 2.8925
5.1 15.4 2.8898
5.1 15.5 2.8898
5.1 15.6 2.8929
5.1 15.7 2.8961
5.1 15.8 2.8997
5.1 15.9 2.9035
5.1 16.0 2.9073
5.1 16.1 2.9112
5.1 16.2 2.9143
5.1 16.3 2.9143
5.1 16.4 2.9134
5.1 16.5 2.9113
5.1 16.6 2.9107
5.1 16.7 2.9062
5.1 16.8 2.8993
5.1 16.9 2.8899
5.1 17.0 2.8821
5.1 17.1 2.8759
5.1 17.2 2.8699
5.1 17.3 2.8639
5.1 17.4 2.8579
5.1 17.5 2.8554
5.1 17.6 2.8651
5.1 17.7 2.8739
5.1 17.8 2.8840
5.1 17.9 2.8941
5.1 18.0 2.8939
5.1 18.1 2.8859
5.1 18.2 2.8778
5.1 18.3 2.8707
5.1 18.4 2.8587
5.1 18.5 2.8466
5.1 18.6 2.8345
5.1 18.7 2.8249
5.1 18.8 2.8240
5.1 18.9 2.8274
5.1 19.0 2.8345
5.1 19.1 2.8389
5.1 19.2 2.8401
5.1 19.3 2.8384
5.1 19.4 2.8349
5.1 19.5 2.8326
5.1 19.6 2.8407
5.1 19.7 2.8515
5.1 19.8 2.8623
5.1 19.9 2.8755
5.1 20.0 2.8686
5.1 20.1 2.8520
5.1 20.2 2.8243
5.1 20.3 2.7966
5.1 20.4 2.7797
5.1 20.5 2.7751
5.1 20.6 2.7779
5.1 20.7 2.7816
5.1 20.8 2.7852
5.1 20.9 2.7857
5.1 21.0 2.7905
5.1 21.1 2.7945
5.1 21.2 2.8028
5.1 21.3 2.8040
5.1 21.4 2.8055
5.1 21.5 2.8065
5.1 21.6 2.8054
5.1 21.7 2.8007
5.1 21.8 2.7994
5.1 21.9 2.8044
5.1 22.0 2.8082
5.1 22.1 2.8146
5.1 22.2 2.8211
5.1 22.3 2.8245
5.1 22.4 2.8187
5.1 22.5 2.8218
5.1 22.6 2.8136
5.1 22.7 2.8063
5.1 22.8 2.8107
5.1 22.9 2.8145
5.1 23.0 2.8184
5.1 23.1 2.8264
5.1 23.2 2.8313
5.1 23.3 2.8373
5.1 23.4 2.8516
5.1 23.5 2.8750
5.1 23.6 2.8974
5.1 23.7 2.9048
5.1 23.8 2.9087
5.1 23.9 2.9020
5.1 24.0 2.8882
5.1 24.1 2.8845
5.1 24.2 2.8828
5.1 24.3 2.8812
5.1 24.4 2.8875
5.1 24.5 2.8869
5.1 24.6 2.8889
5.1 24.7 2.8909
5.1 24.8 2.8929
5.1 24.9 2.8949
5.1 25.0 2.8969
5.1 25.1 2.8985
5.1 25.2 2.8981
5.1 25.3 2.9074
5.1 25.4 2.9179
5.1 25.5 2.9278
5.1 25.6 2.9365
5.1 25.7 2.9455
5.1 25.8 2.9543
5.1 25.9 2.9641
5.1 26.0 2.9795
5.1 26.1 2.9952
5.1 26.2 3.0103
5.1 26.3 3.0232
5.1 26.4 3.0326
5.1 26.5 3.0420
5.1 26.6 3.0500
5.1 26.7 3.0557
5.1 26.8 3.0609
5.1 26.9 3.0664
5.1 27.0 3.0719
5.1 27.1 3.0773
5.1 27.2 3.0863
5.1 27.3 3.0944
5.1 27.4 3.1012
5.1 27.5 3.1080
5.1 27.6 3.1168
5.1 27.7 3.1442
5.1 27.8 3.1721
5.1 27.9 3.1858
5.1 28.0 3.2000
5.1 28.1 3.2116
5.1 28.2 3.2159
5.1 28.3 3.2218
5.1 28.4 3.2280
5.1 28.5 3.2350
5.1 28.6 3.2420
5.1 28.7 3.2552
5.1 28.8 3.2721
5.1 28.9 3.2864
5.1 29.0 3.3018
5.2 1.0 2.9882
5.2 1.1 3.0010
5.2 1.2 3.0090
5.2 1.3 3.0137
5.2 1.4 3.0169
5.2 1.5 3.0199
5.2 1.6 3.0176
5.2 1.7 3.0044
5.2 1.8 2.9937
5.2 1.9 2.9847
5.2 2.0 2.9711
5.2 2.1 2.9621
5.2 2.2 2.9624
5.2 2.3 2.9628
5.2 2.4 2.9612
5.2 2.5 2.9597
5.2 2.6 2.9610
5.2 2.7 2.9627
5.2 2.8 2.9605
5.2 2.9 2.9553
5.2 3.0 2.9518
5.2 3.1 2.9482
5.2 3.2 2.9447
5.2 3.3 2.9411
5.2 3.4 2.9450
5.2 3.5 2.9524
5.2 3.6 2.9614
5.2 3.7 2.9644
5.2 3.8 2.9595
5.2 3.9 2.9522
5.2 4.0 2.9344
5.2 4.1 2.9212
5.2 4.2 2.9135
5.2 4.3 2.9083
5.2 4.4 2.9074
5.2 4.5 2.9044
5.2 4.6 2.8944
5.2 4.7 2.8790
5.2 4.8 2.8643
5.2 4.9 2.8529
5.2 5.0 2.8488
5.2 5.1 2.8528
5.2 5.2 2.8627
5.2 5.3 2.8659
5.2 5.4 2.8691
5.2 5.5 2.8705
5.2 5.6 2.8679
5.2 5.7 2.8674
5.2 5.8 2.8715
5.2 5.9 2.8749
5.2 6.0 2.8740
5.2 6.1 2.8740
5.2 6.2 2.8578
5.2 6.3 2.8459
5.2 6.4 2.8237
5.2 6.5 2.8009
5.2 6.6 2.7919
5.2 6.7 2.7864
5.2 6.8 2.7803
5.2 6.9 2.7785
5.2 7.0 2.7757
5.2 7.1 2.7774
5.2 7.2 2.7794
5.2 7.3 2.7820
5.2 7.4 2.7846
5.2 7.5 2.7872
5.2 7.6 2.7887
5.2 7.7 2.7931
5.2 7.8 2.7971
5.2 7.9 2.7971
5.2 8.0 2.7976
5.2 8.1 2.7981
5.2 8.2 2.7993
5.2 8.3 2.8018
5.2 8.4 2.8037
5.2 8.5 2.8058
5.2 8.6 2.8088
5.2 8.7 2.8117
5.2 8.8 2.8147
5.2 8.9 2.8141
5.2 9.0 2.8139
5.2 9.1 2.8138
5.2 9.2 2.8136
5.2 9.3 2.8157
5.2 9.4 2.8071
5.2 9.5 2.7944
5.2 9.6 2.7825
5.2 9.7 2.7750
5.2 9.8 2.7825
5.2 9.9 2.7894
5.2 10.0 2.7967
5.2 10.1 2.8040
5.2 10.2 2.8114
5.2 10.3 2.8152
5.2 10.4 2.8160
5.2 10.5 2.8176
5.2 10.6 2.8159
5.2 10.7 2.8143
5.2 10.8 2.8126
5.2 10.9 2.8114
5.2 11.0 2.8134
5.2 11.1 2.8141
5.2 11.2 2.8148
5.2 11.3 2.8184
5.2 11.4 2.8263
5.2 11.5 2.8360
5.2 11.6 2.8408
5.2 11.7 2.8461
5.2 11.8 2.8343
5.2 11.9 2.8246
5.2 12.0 2.8179
5.2 12.1 2.8112
5.2 12.2 2.8045
5.2 12.3 2.8039
5.2 12.4 2.8051
5.2 12.5 2.8063
5.2 12.6 2.8075
5.2 12.7 2.8087
5.2 12.8 2.8139
5.2 12.9 2.8216
5.2 13.0 2.8239
5.2 13.1 2.8221
5.2 13.2 2.8195
5.2 13.3 2.8163
5.2 13.4 2.8170
5.2 13.5 2.8177
5.2 13.6 2.8195
5.2 13.7 2.8206
5.2 13.8 2.8202
5.2 13.9 2.8206
5.2 14.0 2.8209
5.2 14.1 2.8213
5.2 14.2 2.8216
5.2 14.3 2.8220
5.2 14.4 2.8242
5.2 14.5 2.8302
5.2 14.6 2.8363
5.2 14.7 2.8422
5.2 14.8 2.8481
5.2 14.9 2.8541
5.2 15.0 2.8600
5.2 15.1 2.8629
5.2 15.2 2.8633
5.2 15.3 2.8632
5.2 15.4 2.8594
5.2 15.5 2.8636
5.2 15.6 2.8681
5.2 15.7 2.8713
5.2 15.8 2.8745
5.2 15.9 2.8776
5.2 16.0 2.8808
5.2 16.1 2.8840
5.2 16.2 2.8828
5.2 16.3 2.8811
5.2 16.4 2.8808
5.2 16.5 2.8808
5.2 16.6 2.8785
5.2 16.7 2.8732
5.2 16.8 2.8699
5.2 16.9 2.8664
5.2 17.0 2.8613
5.2 17.1 2.8553
5.2 17.2 2.8493
5.2 17.3 2.8433
5.2 17.4 2.8373
5.2 17.5 2.8409
5.2 17.6 2.8392
5.2 17.7 2.8487
5.2 17.8 2.8687
5.2 17.9 2.8725
5.2 18.0 2.8749
5.2 18.1 2.8754
5.2 18.2 2.8629
5.2 18.3 2.8508
5.2 18.4 2.8388
5.2 18.5 2.8267
5.2 18.6 2.8139
5.2 18.7 2.8072
5.2 18.8 2.8061
5.2 18.9 2.8126
5.2 19.0 2.8177
5.2 19.1 2.8166
5.2 19.2 2.8152
5.2 19.3 2.8137
5.2 19.4 2.8122
5.2 19.5 2.8103
5.2 19.6 2.8160
5.2 19.7 2.8260
5.2 19.8 2.8349
5.2 19.9 2.8439
5.2 20.0 2.8386
5.2 20.1 2.8211
5.2 20.2 2.7976
5.2 20.3 2.7741
5.2 20.4 2.7539
5.2 20.5 2.7465
5.2 20.6 2.7433
5.2 20.7 2.7417
5.2 20.8 2.7457
5.2 20.9 2.7522
5.2 21.0 2.7600
5.2 21.1 2.7713
5.2 21.2 2.7684
5.2 21.3 2.7837
5.2 21.4 2.7970
5.2 21.5 2.7942
5.2 21.6 2.7868
5.2 21.7 2.7783
5.2 21.8 2.7744
5.2 21.9 2.7756
5.2 22.0 2.7827
5.2 22.1 2.7886
5.2 22.2 2.7950
5.2 22.3 2.8010
5.2 22.4 2.8047
5.2 22.5 2.8009
5.2 22.6 2.7985
5.2 22.7 2.7907
5.2 22.8 2.7953
5.2 22.9 2.7993
5.2 23.0 2.8032
5.2 23.1 2.8088
5.2 23.2 2.8132
5.2 23.3 2.8198
5.2 23.4 2.8340
5.2 23.5 2.8603
5.2 23.6 2.8866
5.2 23.7 2.8993
5.2 23.8 2.8976
5.2 23.9 2.8794
5.2 24.0 2.8686
5.2 24.1 2.8589
5.2 24.2 2.8590
5.2 24.3 2.8618
5.2 24.4 2.8702
5.2 24.5 2.8756
5.2 24.6 2.8777
5.2 24.7 2.8797
5.2 24.8 2.8817
5.2 24.9 2.8837
5.2 25.0 2.8810
5.2 25.1 2.8837
5.2 25.2 2.8852
5.2 25.3 2.8941
5.2 25.4 2.9046
5.2 25.5 2.9150
5.2 25.6 2.9245
5.2 25.7 2.9333
5.2 25.8 2.9415
5.2 25.9 2.9504
5.2 26.0 2.9630
5.2 26.1 2.9767
5.2 26.2 2.9898
5.2 26.3 3.0029
5.2 26.4 3.0160
5.2 26.5 3.0251
5.2 26.6 3.0325
5.2 26.7 3.0400
5.2 26.8 3.0474
5.2 26.9 3.0544
5.2 27.0 3.0611
5.2 27.1 3.0679
5.2 27.2 3.0746
5.2 27.3 3.0815
5.2 27.4 3.0884
5.2 27.5 3.0953
5.2 27.6 3.1023
5.2 27.7 3.1284
5.2 27.8 3.1457
5.2 27.9 3.1592
5.2 28.0 3.1734
5.2 28.1 3.1827
5.2 28.2 3.1887
5.2 28.3 3.1949
5.2 28.4 3.1996
5.2 28.5 3.2065
5.2 28.6 3.2144
5.2 28.7 3.2267
5.2 28.8 3.2394
5.2 28.9 3.2563
5.2 29.0 3.2655
5.3 1.0 2.9695
5.3 1.1 2.9838
5.3 1.2 2.9968
5.3 1.3 3.0035
5.3 1.4 3.0067
5.3 1.5 3.0098
5.3 1.6 3.0127
5.3 1.7 2.9967
5.3 1.8 2.9769
5.3 1.9 2.9702
5.3 2.0 2.9561
5.3 2.1 2.9464
5.3 2.2 2.9448
5.3 2.3 2.9452
5.3 2.4 2.9456
5.3 2.5 2.9460
5.3 2.6 2.9455
5.3 2.7 2.9464
5.3 2.8 2.9420
5.3 2.9 2.9384
5.3 3.0 2.9325
5.3 3.1 2.9272
5.3 3.2 2.9219
5.3 3.3 2.9173
5.3 3.4 2.9304
5.3 3.5 2.9413
5.3 3.6 2.9446
5.3 3.7 2.9478
5.3 3.8 2.9432
5.3 3.9 2.9427
5.3 4.0 2.9278
5.3 4.1 2.9194
5.3 4.2 2.9126
5.3 4.3 2.9024
5.3 4.4 2.8990
5.3 4.5 2.8916
5.3 4.6 2.8767
5.3 4.7 2.8611
5.3 4.8 2.8464
5.3 4.9 2.8317
5.3 5.0 2.8295
5.3 5.1 2.8285
5.3 5.2 2.8398
5.3 5.3 2.8430
5.3 5.4 2.8462
5.3 5.5 2.8494
5.3 5.6 2.8526
5.3 5.7 2.8524
5.3 5.8 2.8586
5.3 5.9 2.8690
5.3 6.0 2.8742
5.3 6.1 2.8719
5.3 6.2 2.8572
5.3 6.3 2.8290
5.3 6.4 2.8062
5.3 6.5 2.7839
5.3 6.6 2.7730
5.3 6.7 2.7668
5.3 6.8 2.7607
5.3 6.9 2.7574
5.3 7.0 2.7592
5.3 7.1 2.7610
5.3 7.2 2.7630
5.3 7.3 2.7649
5.3 7.4 2.7664
5.3 7.5 2.7679
5.3 7.6 2.7693
5.3 7.7 2.7771
5.3 7.8 2.7919
5.3 7.9 2.7877
5.3 8.0 2.7872
5.3 8.1 2.7870
5.3 8.2 2.7875
5.3 8.3 2.7897
5.3 8.4 2.7909
5.3 8.5 2.7937
5.3 8.6 2.7963
5.3 8.7 2.7986
5.3 8.8 2.7997
5.3 8.9 2.8029
5.3 9.0 2.8064
5.3 9.1 2.8083
5.3 9.2 2.8076
5.3 9.3 2.8099
5.3 9.4 2.8040
5.3 9.5 2.7915
5.3 9.6 2.7759
5.3 9.7 2.7688
5.3 9.8 2.7686
5.3 9.9 2.7731
5.3 10.0 2.7805
5.3 10.1 2.7878
5.3 10.2 2.7963
5.3 10.3 2.7925
5.3 10.4 2.7942
5.3 10.5 2.7960
5.3 10.6 2.7941
5.3 10.7 2.7924
5.3 10.8 2.7908
5.3 10.9 2.7891
5.3 11.0 2.7875
5.3 11.1 2.7889
5.3 11.2 2.7893
5.3 11.3 2.7942
5.3 11.4 2.8000
5.3 11.5 2.8142
5.3 11.6 2.8269
5.3 11.7 2.8359
5.3 11.8 2.8238
5.3 11.9 2.8120
5.3 12.0 2.8001
5.3 12.1 2.7928
5.3 12.2 2.7834
5.3 12.3 2.7828
5.3 12.4 2.7832
5.3 12.5 2.7838
5.3 12.6 2.7850
5.3 12.7 2.7862
5.3 12.8 2.7874
5.3 12.9 2.7951
5.3 13.0 2.7953
5.3 13.1 2.7946
5.3 13.2 2.7907
5.3 13.3 2.7893
5.3 13.4 2.7901
5.3 13.5 2.7894
5.3 13.6 2.7860
5.3 13.7 2.7880
5.3 13.8 2.7880
5.3 13.9 2.7879
5.3 14.0 2.7878
5.3 14.1 2.7877
5.3 14.2 2.7876
5.3 14.3 2.7875
5.3 14.4 2.7879
5.3 14.5 2.7929
5.3 14.6 2.7983
5.3 14.7 2.8042
5.3 14.8 2.8101
5.3 14.9 2.8161
5.3 15.0 2.8220
5.3 15.1 2.8271
5.3 15.2 2.8280
5.3 15.3 2.8308
5.3 15.4 2.8333
5.3 15.5 2.8375
5.3 15.6 2.8434
5.3 15.7 2.8465
5.3 15.8 2.8497
5.3 15.9 2.8528
5.3 16.0 2.8560
5.3 16.1 2.8570
5.3 16.2 2.8551
5.3 16.3 2.8534
5.3 16.4 2.8519
5.3 16.5 2.8506
5.3 16.6 2.8492
5.3 16.7 2.8470
5.3 16.8 2.8451
5.3 16.9 2.8433
5.3 17.0 2.8377
5.3 17.1 2.8324
5.3 17.2 2.8271
5.3 17.3 2.8218
5.3 17.4 2.8172
5.3 17.5 2.8150
5.3 17.6 2.8134
5.3 17.7 2.8203
5.3 17.8 2.8346
5.3 17.9 2.8370
5.3 18.0 2.8399
5.3 18.1 2.8421
5.3 18.2 2.8356
5.3 18.3 2.8227
5.3 18.4 2.8111
5.3 18.5 2.7996
5.3 18.6 2.7905
5.3 18.7 2.7895
5.3 18.8 2.7908
5.3 18.9 2.7899
5.3 19.0 2.7892
5.3 19.1 2.7884
5.3 19.2 2.7869
5.3 19.3 2.7855
5.3 19.4 2.7837
5.3 19.5 2.7810
5.3 19.6 2.7784
5.3 19.7 2.7878
5.3 19.8 2.7950
5.3 19.9 2.8037
5.3 20.0 2.7955
5.3 20.1 2.7790
5.3 20.2 2.7541
5.3 20.3 2.7338
5.3 20.4 2.7192
5.3 20.5 2.7142
5.3 20.6 2.7100
5.3 20.7 2.7064
5.3 20.8 2.7055
5.3 20.9 2.7117
5.3 21.0 2.7190
5.3 21.1 2.7305
5.3 21.2 2.7339
5.3 21.3 2.7492
5.3 21.4 2.7606
5.3 21.5 2.7593
5.3 21.6 2.7506
5.3 21.7 2.7443
5.3 21.8 2.7457
5.3 21.9 2.7469
5.3 22.0 2.7500
5.3 22.1 2.7583
5.3 22.2 2.7666
5.3 22.3 2.7754
5.3 22.4 2.7675
5.3 22.5 2.7670
5.3 22.6 2.7675
5.3 22.7 2.7690
5.3 22.8 2.7748
5.3 22.9 2.7785
5.3 23.0 2.7841
5.3 23.1 2.7910
5.3 23.2 2.7980
5.3 23.3 2.8030
5.3 23.4 2.8163
5.3 23.5 2.8426
5.3 23.6 2.8600
5.3 23.7 2.8719
5.3 23.8 2.8718
5.3 23.9 2.8597
5.3 24.0 2.8490
5.3 24.1 2.8383
5.3 24.2 2.8344
5.3 24.3 2.8436
5.3 24.4 2.8528
5.3 24.5 2.8626
5.3 24.6 2.8651
5.3 24.7 2.8686
5.3 24.8 2.8652
5.3 24.9 2.8606
5.3 25.0 2.8596
5.3 25.1 2.8635
5.3 25.2 2.8674
5.3 25.3 2.8771
5.3 25.4 2.8876
5.3 25.5 2.8981
5.3 25.6 2.9079
5.3 25.7 2.9143
5.3 25.8 2.9206
5.3 25.9 2.9269
5.3 26.0 2.9349
5.3 26.1 2.9489
5.3 26.2 2.9636
5.3 26.3 2.9783
5.3 26.4 2.9932
5.3 26.5 3.0070
5.3 26.6 3.0158
5.3 26.7 3.0232
5.3 26.8 3.0306
5.3 26.9 3.0382
5.3 27.0 3.0460
5.3 27.1 3.0539
5.3 27.2 3.0599
5.3 27.3 3.0668
5.3 27.4 3.0737
5.3 27.5 3.0805
5.3 27.6 3.0875
5.3 27.7 3.1058
5.3 27.8 3.1193
5.3 27.9 3.1328
5.3 28.0 3.1467
5.3 28.1 3.1547
5.3 28.2 3.1615
5.3 28.3 3.1680
5.3 28.4 3.1727
5.3 28.5 3.1779
5.3 28.6 3.1877
5.3 28.7 3.2000
5.3 28.8 3.2123
5.3 28.9 3.2246
5.3 29.0 3.2345
5.4 1.0 2.9406
5.4 1.1 2.9613
5.4 1.2 2.9793
5.4 1.3 2.9897
5.4 1.4 2.9965
5.4 1.5 2.9996
5.4 1.6 3.0012
5.4 1.7 2.9890
5.4 1.8 2.9693
5.4 1.9 2.9556
5.4 2.0 2.9411
5.4 2.1 2.9323
5.4 2.2 2.9302
5.4 2.3 2.9291
5.4 2.4 2.9297
5.4 2.5 2.9302
5.4 2.6 2.9307
5.4 2.7 2.9270
5.4 2.8 2.9191
5.4 2.9 2.9138
5.4 3.0 2.9085
5.4 3.1 2.9032
5.4 3.2 2.8979
5.4 3.3 2.8989
5.4 3.4 2.9098
5.4 3.5 2.9166
5.4 3.6 2.9236
5.4 3.7 2.9302
5.4 3.8 2.9357
5.4 3.9 2.9344
5.4 4.0 2.9254
5.4 4.1 2.9146
5.4 4.2 2.9020
5.4 4.3 2.8921
5.4 4.4 2.8818
5.4 4.5 2.8716
5.4 4.6 2.8589
5.4 4.7 2.8432
5.4 4.8 2.8285
5.4 4.9 2.8156
5.4 5.0 2.8131
5.4 5.1 2.8112
5.4 5.2 2.8170
5.4 5.3 2.8201
5.4 5.4 2.8233
5.4 5.5 2.8265
5.4 5.6 2.8297
5.4 5.7 2.8286
5.4 5.8 2.8376
5.4 5.9 2.8483
5.4 6.0 2.8578
5.4 6.1 2.8541
5.4 6.2 2.8342
5.4 6.3 2.8115
5.4 6.4 2.7879
5.4 6.5 2.7638
5.4 6.6 2.7485
5.4 6.7 2.7416
5.4 6.8 2.7362
5.4 6.9 2.7360
5.4 7.0 2.7359
5.4 7.1 2.7358
5.4 7.2 2.7358
5.4 7.3 2.7364
5.4 7.4 2.7391
5.4 7.5 2.7421
5.4 7.6 2.7500
5.4 7.7 2.7625
5.4 7.8 2.7756
5.4 7.9 2.7815
5.4 8.0 2.7783
5.4 8.1 2.7778
5.4 8.2 2.7781
5.4 8.3 2.7751
5.4 8.4 2.7725
5.4 8.5 2.7800
5.4 8.6 2.7823
5.4 8.7 2.7846
5.4 8.8 2.7841
5.4 8.9 2.7845
5.4 9.0 2.7906
5.4 9.1 2.7968
5.4 9.2 2.7980
5.4 9.3 2.7953
5.4 9.4 2.7910
5.4 9.5 2.7852
5.4 9.6 2.7694
5.4 9.7 2.7626
5.4 9.8 2.7560
5.4 9.9 2.7569
5.4 10.0 2.7642
5.4 10.1 2.7715
5.4 10.2 2.7737
5.4 10.3 2.7699
5.4 10.4 2.7724
5.4 10.5 2.7710
5.4 10.6 2.7702
5.4 10.7 2.7694
5.4 10.8 2.7686
5.4 10.9 2.7673
5.4 11.0 2.7656
5.4 11.1 2.7640
5.4 11.2 2.7640
5.4 11.3 2.7650
5.4 11.4 2.7777
5.4 11.5 2.7916
5.4 11.6 2.8025
5.4 11.7 2.8079
5.4 11.8 2.8009
5.4 11.9 2.7914
5.4 12.0 2.7808
5.4 12.1 2.7713
5.4 12.2 2.7617
5.4 12.3 2.7622
5.4 12.4 2.7627
5.4 12.5 2.7632
5.4 12.6 2.7636
5.4 12.7 2.7641
5.4 12.8 2.7649
5.4 12.9 2.7687
5.4 13.0 2.7643
5.4 13.1 2.7655
5.4 13.2 2.7619
5.4 13.3 2.7624
5.4 13.4 2.7632
5.4 13.5 2.7578
5.4 13.6 2.7532
5.4 13.7 2.7541
5.4 13.8 2.7569
5.4 13.9 2.7575
5.4 14.0 2.7575
5.4 14.1 2.7574
5.4 14.2 2.7573
5.4 14.3 2.7572
5.4 14.4 2.7568
5.4 14.5 2.7597
5.4 14.6 2.7647
5.4 14.7 2.7698
5.4 14.8 2.7748
5.4 14.9 2.7799
5.4 15.0 2.7849
5.4 15.1 2.7900
5.4 15.2 2.7964
5.4 15.3 2.8030
5.4 15.4 2.8072
5.4 15.5 2.8114
5.4 15.6 2.8166
5.4 15.7 2.8217
5.4 15.8 2.8248
5.4 15.9 2.8280
5.4 16.0 2.8318
5.4 16.1 2.8298
5.4 16.2 2.8296
5.4 16.3 2.8304
5.4 16.4 2.8291
5.4 16.5 2.8277
5.4 16.6 2.8264
5.4 16.7 2.8230
5.4 16.8 2.8204
5.4 16.9 2.8185
5.4 17.0 2.8143
5.4 17.1 2.8090
5.4 17.2 2.8037
5.4 17.3 2.7974
5.4 17.4 2.7866
5.4 17.5 2.7875
5.4 17.6 2.7876
5.4 17.7 2.7918
5.4 17.8 2.7991
5.4 17.9 2.8023
5.4 18.0 2.8056
5.4 18.1 2.8089
5.4 18.2 2.8001
5.4 18.3 2.7900
5.4 18.4 2.7790
5.4 18.5 2.7711
5.4 18.6 2.7687
5.4 18.7 2.7673
5.4 18.8 2.7646
5.4 18.9 2.7615
5.4 19.0 2.7608
5.4 19.1 2.7602
5.4 19.2 2.7587
5.4 19.3 2.7572
5.4 19.4 2.7544
5.4 19.5 2.7518
5.4 19.6 2.7491
5.4 19.7 2.7464
5.4 19.8 2.7527
5.4 19.9 2.7546
5.4 20.0 2.7450
5.4 20.1 2.7256
5.4 20.2 2.7093
5.4 20.3 2.6955
5.4 20.4 2.6877
5.4 20.5 2.6835
5.4 20.6 2.6792
5.4 20.7 2.6749
5.4 20.8 2.6711
5.4 20.9 2.6754
5.4 21.0 2.6830
5.4 21.1 2.6905
5.4 21.2 2.7046
5.4 21.3 2.7148
5.4 21.4 2.7249
5.4 21.5 2.7229
5.4 21.6 2.7144
5.4 21.7 2.7155
5.4 21.8 2.7170
5.4 21.9 2.7183
5.4 22.0 2.7206
5.4 22.1 2.7257
5.4 22.2 2.7340
5.4 22.3 2.7344
5.4 22.4 2.7339
5.4 22.5 2.7335
5.4 22.6 2.7337
5.4 22.7 2.7390
5.4 22.8 2.7492
5.4 22.9 2.7546
5.4 23.0 2.7601
5.4 23.1 2.7660
5.4 23.2 2.7745
5.4 23.3 2.7832
5.4 23.4 2.7898
5.4 23.5 2.8040
5.4 23.6 2.8212
5.4 23.7 2.8324
5.4 23.8 2.8354
5.4 23.9 2.8239
5.4 24.0 2.8124
5.4 24.1 2.8044
5.4 24.2 2.8062
5.4 24.3 2.8141
5.4 24.4 2.8205
5.4 24.5 2.8268
5.4 24.6 2.8332
5.4 24.7 2.8367
5.4 24.8 2.8318
5.4 24.9 2.8292
5.4 25.0 2.8295
5.4 25.1 2.8342
5.4 25.2 2.8381
5.4 25.3 2.8512
5.4 25.4 2.8617
5.4 25.5 2.8722
5.4 25.6 2.8804
5.4 25.7 2.8868
5.4 25.8 2.8931
5.4 25.9 2.8994
5.4 26.0 2.9040
5.4 26.1 2.9147
5.4 26.2 2.9281
5.4 26.3 2.9419
5.4 26.4 2.9564
5.4 26.5 2.9708
5.4 26.6 2.9852
5.4 26.7 2.9936
5.4 26.8 3.0008
5.4 26.9 3.0086
5.4 27.0 3.0165
5.4 27.1 3.0246
5.4 27.2 3.0328
5.4 27.3 3.0425
5.4 27.4 3.0534
5.4 27.5 3.0644
5.4 27.6 3.0750
5.4 27.7 3.0834
5.4 27.8 3.0940
5.4 27.9 3.1065
5.4 28.0 3.1200
5.4 28.1 3.1275
5.4 28.2 3.1343
5.4 28.3 3.1411
5.4 28.4 3.1468
5.4 28.5 3.1543
5.4 28.6 3.1620
5.4 28.7 3.1746
5.4 28.8 3.1872
5.4 28.9 3.1998
5.4 29.0 3.2049
5.5 1.0 2.9150
5.5 1.1 2.9323
5.5 1.2 2.9531
5.5 1.3 2.9748
5.5 1.4 2.9863
5.5 1.5 2.9894
5.5 1.6 2.9898
5.5 1.7 2.9816
5.5 1.8 2.9618
5.5 1.9 2.9428
5.5 2.0 2.9317
5.5 2.1 2.9272
5.5 2.2 2.9250
5.5 2.3 2.9230
5.5 2.4 2.9209
5.5 2.5 2.9189
5.5 2.6 2.9155
5.5 2.7 2.9092
5.5 2.8 2.9009
5.5 2.9 2.8926
5.5 3.0 2.8846
5.5 3.1 2.8793
5.5 3.2 2.8740
5.5 3.3 2.8788
5.5 3.4 2.8830
5.5 3.5 2.8888
5.5 3.6 2.8942
5.5 3.7 2.9007
5.5 3.8 2.9073
5.5 3.9 2.9092
5.5 4.0 2.9065
5.5 4.1 2.8961
5.5 4.2 2.8837
5.5 4.3 2.8717
5.5 4.4 2.8619
5.5 4.5 2.8516
5.5 4.6 2.8414
5.5 4.7 2.8253
5.5 4.8 2.8107
5.5 4.9 2.7997
5.5 5.0 2.7966
5.5 5.1 2.7941
5.5 5.2 2.7941
5.5 5.3 2.7973
5.5 5.4 2.7998
5.5 5.5 2.8018
5.5 5.6 2.7971
5.5 5.7 2.7929
5.5 5.8 2.7999
5.5 5.9 2.8140
5.5 6.0 2.8282
5.5 6.1 2.8246
5.5 6.2 2.8104
5.5 6.3 2.7842
5.5 6.4 2.7580
5.5 6.5 2.7423
5.5 6.6 2.7276
5.5 6.7 2.7150
5.5 6.8 2.7148
5.5 6.9 2.7146
5.5 7.0 2.7146
5.5 7.1 2.7145
5.5 7.2 2.7144
5.5 7.3 2.7143
5.5 7.4 2.7156
5.5 7.5 2.7179
5.5 7.6 2.7266
5.5 7.7 2.7382
5.5 7.8 2.7499
5.5 7.9 2.7597
5.5 8.0 2.7620
5.5 8.1 2.7540
5.5 8.2 2.7458
5.5 8.3 2.7376
5.5 8.4 2.7428
5.5 8.5 2.7545
5.5 8.6 2.7657
5.5 8.7 2.7691
5.5 8.8 2.7686
5.5 8.9 2.7667
5.5 9.0 2.7704
5.5 9.1 2.7760
5.5 9.2 2.7817
5.5 9.3 2.7809
5.5 9.4 2.7807
5.5 9.5 2.7726
5.5 9.6 2.7586
5.5 9.7 2.7549
5.5 9.8 2.7497
5.5 9.9 2.7406
5.5 10.0 2.7480
5.5 10.1 2.7553
5.5 10.2 2.7510
5.5 10.3 2.7472
5.5 10.4 2.7469
5.5 10.5 2.7460
5.5 10.6 2.7452
5.5 10.7 2.7444
5.5 10.8 2.7436
5.5 10.9 2.7428
5.5 11.0 2.7420
5.5 11.1 2.7412
5.5 11.2 2.7405
5.5 11.3 2.7392
5.5 11.4 2.7483
5.5 11.5 2.7599
5.5 11.6 2.7698
5.5 11.7 2.7735
5.5 11.8 2.7675
5.5 11.9 2.7639
5.5 12.0 2.7533
5.5 12.1 2.7448
5.5 12.2 2.7400
5.5 12.3 2.7403
5.5 12.4 2.7406
5.5 12.5 2.7409
5.5 12.6 2.7412
5.5 12.7 2.7414
5.5 12.8 2.7417
5.5 12.9 2.7394
5.5 13.0 2.7346
5.5 13.1 2.7366
5.5 13.2 2.7348
5.5 13.3 2.7356
5.5 13.4 2.7309
5.5 13.5 2.7263
5.5 13.6 2.7216
5.5 13.7 2.7201
5.5 13.8 2.7223
5.5 13.9 2.7251
5.5 14.0 2.7271
5.5 14.1 2.7270
5.5 14.2 2.7270
5.5 14.3 2.7269
5.5 14.4 2.7264
5.5 14.5 2.7265
5.5 14.6 2.7315
5.5 14.7 2.7366
5.5 14.8 2.7416
5.5 14.9 2.7470
5.5 15.0 2.7542
5.5 15.1 2.7614
5.5 15.2 2.7683
5.5 15.3 2.7753
5.5 15.4 2.7811
5.5 15.5 2.7853
5.5 15.6 2.7898
5.5 15.7 2.7965
5.5 15.8 2.8000
5.5 15.9 2.8032
5.5 16.0 2.8041
5.5 16.1 2.8037
5.5 16.2 2.8035
5.5 16.3 2.8033
5.5 16.4 2.8063
5.5 16.5 2.8049
5.5 16.6 2.8036
5.5 16.7 2.8007
5.5 16.8 2.7968
5.5 16.9 2.7938
5.5 17.0 2.7908
5.5 17.1 2.7855
5.5 17.2 2.7786
5.5 17.3 2.7679
5.5 17.4 2.7578
5.5 17.5 2.7583
5.5 17.6 2.7599
5.5 17.7 2.7622
5.5 17.8 2.7699
5.5 17.9 2.7728
5.5 18.0 2.7759
5.5 18.1 2.7776
5.5 18.2 2.7668
5.5 18.3 2.7570
5.5 18.4 2.7522
5.5 18.5 2.7488
5.5 18.6 2.7468
5.5 18.7 2.7452
5.5 18.8 2.7434
5.5 18.9 2.7393
5.5 19.0 2.7337
5.5 19.1 2.7317
5.5 19.2 2.7305
5.5 19.3 2.7278
5.5 19.4 2.7251
5.5 19.5 2.7225
5.5 19.6 2.7198
5.5 19.7 2.7172
5.5 19.8 2.7145
5.5 19.9 2.7120
5.5 20.0 2.6973
5.5 20.1 2.6839
5.5 20.2 2.6750
5.5 20.3 2.6669
5.5 20.4 2.6589
5.5 20.5 2.6524
5.5 20.6 2.6488
5.5 20.7 2.6454
5.5 20.8 2.6420
5.5 20.9 2.6451
5.5 21.0 2.6531
5.5 21.1 2.6690
5.5 21.2 2.6707
5.5 21.3 2.6782
5.5 21.4 2.6872
5.5 21.5 2.6867
5.5 21.6 2.6854
5.5 21.7 2.6868
5.5 21.8 2.6882
5.5 21.9 2.6897
5.5 22.0 2.6918
5.5 22.1 2.6946
5.5 22.2 2.7013
5.5 22.3 2.7009
5.5 22.4 2.7004
5.5 22.5 2.6999
5.5 22.6 2.6998
5.5 22.7 2.7090
5.5 22.8 2.7192
5.5 22.9 2.7294
5.5 23.0 2.7349
5.5 23.1 2.7418
5.5 23.2 2.7494
5.5 23.3 2.7581
5.5 23.4 2.7633
5.5 23.5 2.7654
5.5 23.6 2.7755
5.5 23.7 2.7844
5.5 23.8 2.7906
5.5 23.9 2.7781
5.5 24.0 2.7743
5.5 24.1 2.7705
5.5 24.2 2.7723
5.5 24.3 2.7837
5.5 24.4 2.7914
5.5 24.5 2.7978
5.5 24.6 2.8042
5.5 24.7 2.8033
5.5 24.8 2.8004
5.5 24.9 2.8007
5.5 25.0 2.8010
5.5 25.1 2.8026
5.5 25.2 2.8090
5.5 25.3 2.8253
5.5 25.4 2.8358
5.5 25.5 2.8466
5.5 25.6 2.8530
5.5 25.7 2.8593
5.5 25.8 2.8656
5.5 25.9 2.8670
