# This PCD file was generated using the MATLAB® pcwrite function
# from Computer Vision Toolbox®.
# .PCD v.7 - Point Cloud Data file format
VERSION .7
FIELDS x y z
SIZE 8 8 8
TYPE F F F
COUNT 1 1 1
WIDTH 843
HEIGHT 1
VIEWPOINT 0 0 0 1 0 0 0
POINTS 843
DATA ascii
-4.365951820232678 -11.709988461482304 1.301619531464354
-4.251549070112413 -11.714374417342551 1.292624552191967
14.544068445241127 -10.853929730326598 0.582472115946558
-13.207269117291514 -11.937948308244508 1.528734745240087
-13.030271079577549 -11.908525767341317 1.568096985880089
-12.835219952171080 -11.895657750703435 1.598223956957042
-12.701062119860943 -11.825724179035191 1.596721443207571
-8.558408166235996 -11.737164769909807 1.441068107082117
-8.388771684661332 -11.738589016458203 1.430166816299021
-8.275093773087782 -11.736725292107359 1.436838436253652
-8.003951678700009 -11.689719162255290 1.427139249104783
-7.839715629947022 -11.672015910127961 1.420759969904054
-7.663761222859420 -11.676235222836770 1.392204628272140
-7.452276739265936 -11.692571519613910 1.367170266131069
-7.281892231815283 -11.677537704780693 1.351417439833483
-6.992192931063765 -11.654050924078820 1.348833273171209
-6.653976656252161 -11.624910786752785 1.320253742923569
-6.459429798072651 -11.623075463094327 1.322510586638629
-6.285671506250718 -11.626585699325382 1.291090574469195
-6.031065326447373 -11.629099105489939 1.320621888280101
-5.836954042636402 -11.617573089816876 1.319927446809544
-5.522232434746143 -11.558691999313979 1.297324748029098
-5.262260068452366 -11.566515759620788 1.284037109477339
-5.074576500847569 -11.567220872502073 1.302605420008007
-4.907279791213873 -11.569079748932193 1.291466909642736
-4.643309322336017 -11.567715422580633 1.298568674424274
-4.366761238874772 -11.534350125460740 1.292040979118241
-4.246545319179854 -11.510999632542664 1.287100995981859
-3.860925987686406 -11.506084457755808 1.285647639740063
-3.687860826760587 -11.472167104481251 1.280226810968600
14.542560697914258 -10.675015662938026 0.585664331081659
-13.208695137319452 -11.761629469051154 1.521522142632222
-13.050139190599509 -11.738853063044377 1.557458497736150
-12.836240824395926 -11.720637514466439 1.584675183453527
-12.701301423298883 -11.685232768797309 1.582048191889754
-12.523298883809421 -11.618297693304168 1.593086470062929
-8.559368517649578 -11.526323153147054 1.411204001419605
-8.390650113488487 -11.594706940149528 1.448153072809021
-8.276204288319921 -11.527751226861408 1.403795431070932
-8.039028380240946 -11.495992118687830 1.420765740759748
-7.831927975280085 -11.476005339732001 1.402900323299775
-7.665096809736943 -11.465563922086616 1.370375718612365
-7.471093509699226 -11.469545672213354 1.365547056126417
-7.290337625077769 -11.475687818545975 1.333641348343320
-6.993420751550761 -11.478205815544605 1.341936457207339
-6.655800116611007 -11.412829059185029 1.314760478940030
-6.460864422394905 -11.411021247317493 1.315573102921775
-6.287302310850523 -11.412709273607220 1.297544979350619
-6.032352058678984 -11.416850225445170 1.307067852685407
-5.828051804127841 -11.421706756175563 1.294915884754261
-5.523453110576841 -11.380488499708385 1.298363499121734
-5.263471767558324 -11.354561912368059 1.272189803410640
-5.076087250757777 -11.356293742918609 1.276441799455910
-4.908567465372786 -11.356982910985600 1.272952166103238
-4.645097032461043 -11.355139951835028 1.285393928513656
-4.367970344507889 -11.356961469966105 1.273762273437200
-4.261449133030424 -11.339630683061358 1.281119344840533
-3.862992759378945 -11.222947438143326 1.279302042469084
-3.650296773369321 -11.282024780905243 1.269809033905602
-3.460173591419490 -11.226688476897341 1.264822823619539
14.541387753986548 -10.495727279178102 0.589195389747090
-13.219236183980261 -11.566280988096956 1.492929056401778
-13.053268722929015 -11.542618827655613 1.528122949116977
-12.837593640408311 -11.544552494657641 1.567406577928637
-12.702299882706527 -11.511362310345099 1.555496359910961
-12.524331201094299 -11.478637400208662 1.573798249369901
-12.294071041353611 -11.407845596718410 1.576064082283381
-9.001342996898636 -11.305240386321611 1.460893416885256
-8.476674735128110 -11.313584055094946 1.416615308218724
-8.277612850742397 -11.316151089319636 1.387299828620087
-8.039761648261003 -11.320819243100733 1.399035151684473
-7.851056798740324 -11.306404047476388 1.397332738253056
-7.666377163307405 -11.254640290336088 1.350560192758024
-7.472587628112691 -11.257924243889622 1.354559122499552
-7.291796209845379 -11.263144618560755 1.329124203722785
-6.994787124957852 -11.266498692858701 1.320752120357326
-6.656346919611807 -11.238048020829826 1.283664729407946
-6.449915181485316 -11.220213776244009 1.294366172213927
-6.288526575080883 -11.202170708157155 1.269699935333279
-6.066312755761024 -11.222923796914824 1.296926604874272
-5.864342867333387 -11.198987664594735 1.288886146300086
-5.524494256969017 -11.205711439075881 1.281478623763803
-5.256085860606992 -11.166737698541361 1.261395189990651
-5.077181664557606 -11.145410965667157 1.261945918449868
-4.909950112569249 -11.145047327967127 1.261091289181849
-4.646024780397812 -11.147950380633240 1.242962325079787
-4.368756832441092 -11.216759986059760 1.261768251085073
-4.276002538329721 -11.141628690918065 1.262115904981329
-3.898240868785240 -11.096510839667705 1.266810150130794
-3.651597236505858 -11.098139287372209 1.265466710477853
-3.461146606011792 -11.086606281791006 1.247513372969706
-3.310560572371458 -11.055727554021207 1.248412341704892
14.539966675542017 -10.282443611784650 0.577660875441723
-13.259856151092848 -11.342276610437828 1.459760871867161
-13.081930289147817 -11.345068678905086 1.514058236018570
-12.857376268370292 -11.326329153339412 1.529888620417410
-12.703816848277345 -11.335086117155836 1.545905783538217
-12.525165284636643 -11.304583127681912 1.547896489664708
-12.295042158861239 -11.268470049320875 1.558112452206274
-9.001379339118074 -11.165535098247130 1.441559227497919
-8.477910995310157 -11.102325004145353 1.403435778878446
-8.278729768908160 -11.106084347606693 1.362055865759373
-8.074516394675999 -11.126848122086088 1.380802736513829
-7.875744843229069 -11.102294595798234 1.368463607767779
-7.667515968676947 -11.079435100258696 1.331315271446584
-7.464908561525333 -11.059007040157230 1.356155692775189
-7.293209438569247 -11.052728388146285 1.305212697878574
-6.996022213481697 -11.056067391845421 1.301598532959872
-6.657841362751239 -11.060485373127303 1.285220298939805
-6.487387842162010 -11.057590188093283 1.293695873926282
-6.307520251598446 -11.020002042639337 1.251256406608832
-6.100432482740255 -10.995007192579294 1.269714901233641
-5.905018911638147 -11.005047210443568 1.275265502138978
-5.780208634301927 -10.964788123291267 1.257410327177183
-5.525906878352187 -10.993005688142471 1.260269735988118
-5.272951264170090 -10.995908116087996 1.235947568284985
-5.078196460790196 -10.967530109297087 1.249473074561394
-4.911284122948829 -10.933064437032215 1.250248445865509
-4.647268547859619 -10.934556450329321 1.236393463994887
-4.285009642706931 -10.938495535508018 1.231203316932124
-4.091260638984056 -10.940161810247933 1.277861911433831
-3.916751691643284 -10.927419559111364 1.255218622494510
-3.689221018505305 -10.871949025138985 1.246730510678361
-3.462486788002427 -10.875120836812343 1.231518864055516
-3.289518615305552 -10.873515733693129 1.224735958861174
14.538433122298688 -10.068433959556828 0.582426793168707
-13.260708605819769 -11.133058103244810 1.431286812833122
-13.108296195412816 -11.128918240317379 1.484051362986548
-12.883255941804372 -11.126974475538020 1.501706181884629
-12.704643651870889 -11.123802371486423 1.520739916163649
-12.526182132346907 -11.130656580327987 1.516329057930619
-12.295783989501498 -11.093230784161857 1.535839908237847
-9.289917882872526 -10.911300286445705 1.450128690278746
-9.002944178635861 -10.956043547805177 1.412091929170629
-8.462137728725008 -10.906744595242589 1.371365270640155
-8.279946444706422 -10.895381974679815 1.340452208569218
-8.109281623772016 -10.896272440668309 1.371320818689469
-7.887760040155253 -10.900334621731858 1.346004719840494
-7.668304633851824 -10.901694348693024 1.325344393444567
-7.484202684021567 -10.890084554334877 1.339581169050774
-7.294395787129845 -10.841651928043486 1.284919437209851
-6.997086111938517 -10.844133315017711 1.289075945397485
-6.659232042295771 -10.849510188779963 1.262414426866542
-6.506563043202637 -10.845810232506775 1.273992345871221
-6.320572629330676 -10.849166043697675 1.253101562736248
-6.101229424691016 -10.818336499089032 1.261780454233644
-5.926921585323480 -10.784645755250246 1.244801203967199
-5.781367956327322 -10.790356144158192 1.227526237293745
-5.527163994330215 -10.782591618567626 1.240456740622278
-5.282782874543805 -10.798250083276226 1.216868328299455
-5.122745640472348 -10.779933763102733 1.225413690026983
-4.912073557853282 -10.756970965388412 1.232669668946585
-4.648650562756393 -10.723532727806603 1.213916331893955
-4.286073501004881 -10.727329801101220 1.208200867780789
-4.092393614917351 -10.729202935825565 1.252685219494936
-3.909290305711129 -10.730413392316347 1.231628843908993
-3.702546409071137 -10.711368948225999 1.222538882666186
-3.455414259452012 -10.677568730031904 1.213353522811275
-3.291250976675825 -10.659923064077745 1.226356734806018
-3.134734194652947 -10.629508161351833 1.236319561381634
-2.909662153714570 -10.632917352677580 1.223544437024714
-2.687189189285502 -10.629191361378528 1.210182652451380
-2.251369839332184 -10.598437958006969 1.202665804951920
14.537179907409921 -9.856182530845306 0.555879156299056
-13.261628468074527 -10.959098152870411 1.407412444147042
-13.109327147028790 -10.918590885762164 1.461099760415834
-12.884451289772436 -10.916478506244566 1.480627683397870
-12.705766741802645 -10.913959402966491 1.503920043014460
-12.527383588550158 -10.921123193667878 1.487878954912730
-12.297077722398605 -10.918198913628135 1.512280823415665
-12.095018415201711 -10.847463438175300 1.551937571789352
-9.427242561251667 -10.732980920045229 1.454435852175436
-9.291129109410971 -10.736009323440687 1.432065174562013
-9.095296817178330 -10.740027872294707 1.424330901227250
-8.522439401809180 -10.751752067890553 1.362353239943417
-8.292924334023741 -10.684130064721082 1.322217692161104
-8.110848973903991 -10.685182812071044 1.353502861111963
-7.889490537628059 -10.688512962352796 1.330165174474786
-7.669889834727303 -10.690041815268046 1.316200578159311
-7.475776948712560 -10.695605862438008 1.294053030865712
-7.295617919689323 -10.665377152050471 1.267791439030788
-6.998038301491493 -10.704402566889133 1.272095280908530
-6.998563356034579 -10.597407359318282 1.267318244735634
-6.660418668364463 -10.639283677443682 1.235246883106640
-6.507745994463224 -10.635866632018814 1.241827323852448
-6.321856171871178 -10.638262474611807 1.227180863393784
-6.102193005870068 -10.642473539961095 1.248187580105139
-5.919302251187044 -10.588537002824346 1.215774232280950
-5.782736091194828 -10.578409894645592 1.215664574108359
-5.528627418856021 -10.571649646207870 1.215622345408462
-5.294437809254805 -10.580367581358551 1.189685573104555
-5.134824286889772 -10.581841264618564 1.206651772586895
-4.913139334264709 -10.584058906660470 1.194143878583475
-4.648950742088938 -10.548807794062014 1.180481220688591
-4.287342874743074 -10.516487675056556 1.181790816828823
-4.093003296028381 -10.520258500374805 1.212198433266394
-3.910447279065401 -10.519417852042189 1.215320468819385
-3.737534183966681 -10.520365064916316 1.203801790242721
-3.519673912130105 -10.513390261429421 1.200935875448295
-3.291896373770316 -10.485458186404426 1.193991493002329
-3.135836502130160 -10.454326035428355 1.208736035153919
-2.910677586568835 -10.457158785337555 1.199285954720494
-2.688073969009685 -10.452682652237474 1.192566296466225
-2.499341969448564 -10.455546261033763 1.195900034806670
-2.301451379053360 -10.447836091056335 1.191319932083587
14.535847385149037 -9.644835504144789 0.507357048984346
-13.110713109003054 -10.708760382742870 1.430826581840080
-12.911024654676748 -10.717182238899834 1.452190732856167
-12.743151496768295 -10.691011233535008 1.470166080753728
-12.528375104751962 -10.711332660059281 1.456051582340450
-12.298128426664480 -10.707760637205133 1.493470947800176
-12.095671983044621 -10.709123625865764 1.531990076226350
-10.269687352877497 -10.513332515758869 1.480441699709502
-9.709486918671026 -10.553360342108281 1.464920722013829
-9.428961488580494 -10.555251116805248 1.450179346787309
-9.284629899537084 -10.545508167426135 1.411261897004493
-9.096658544721254 -10.529542221895557 1.401516825788093
-8.566037675479510 -10.539240314691682 1.358547745715725
-8.320527941948889 -10.519174810782761 1.318779416915021
-8.111696829638845 -10.476191895512610 1.315355393663566
-7.935298999898399 -10.479115758264971 1.305258236713854
-7.714492395145851 -10.479607739541780 1.292095190103197
-7.477129705607811 -10.484636184018438 1.277061513060744
-7.296607052800613 -10.489363106458470 1.253875193630932
-7.000086191989719 -10.456363735485674 1.263675814802639
-6.661433970202768 -10.428100033317801 1.204735124965026
-6.508924969502547 -10.426096417758220 1.209526572670285
-6.322741466719545 -10.430489907427205 1.180278263044272
-6.104080543933388 -10.431011708970832 1.231041689538671
-5.937742323723440 -10.419463938682679 1.195162128856282
-5.783597932318387 -10.403343120088710 1.190267759108735
-5.529807296386184 -10.360835920437328 1.198478733894291
-5.295906819194300 -10.368949542420633 1.165489518251661
-5.135916502670731 -10.370922877948846 1.187490442927356
-4.914249044565495 -10.372746280406655 1.170278362587055
-4.650106584381891 -10.374101755634623 1.160108887130576
-4.307962375355742 -10.314187948419487 1.150664970365767
-4.151465320235689 -10.308769681256361 1.181342533758169
-3.911600461245629 -10.309210362905560 1.179984482817417
-3.738860636943406 -10.307995914923371 1.189104904525749
-3.510125081587323 -10.311275661519403 1.179581675335271
-3.293098844276714 -10.309997286565117 1.171418932397245
-3.136763571992343 -10.278204462083504 1.192152271256447
-2.911724727938519 -10.247739950242785 1.165478368256913
-2.689437964053567 -10.241666075575036 1.170579189080570
-2.500232908208942 -10.244982301485685 1.168052694959670
-2.310103112353594 -10.246210399382260 1.162776661548406
-2.129273706301947 -10.233797070618071 1.181240596800905
-13.111795762227224 -10.532945433031337 1.413875923182502
-12.931459349900393 -10.496814119382591 1.423307597854006
-12.753092728730767 -10.495231524432018 1.436395853457867
-12.529770004877840 -10.500108453297681 1.442568210523234
-12.299222251883378 -10.497464495186350 1.468960872679872
-12.096538923905072 -10.499229064675614 1.504159437851740
-11.592241860260941 -10.428361851162695 1.522378005243411
-10.463419611426115 -10.367981359619982 1.485390400825338
-10.297761092028122 -10.372372976053960 1.462704353197722
-10.048901706962948 -10.376405871024623 1.460806024423903
-9.756710892792913 -10.377182974055092 1.455947925460691
-9.429629434994290 -10.381347522495744 1.423945419158713
-9.299999374888909 -10.374822045858696 1.413412104593277
-9.188799730233402 -10.349324613000078 1.411363228045190
-9.006763771187209 -10.323802801527972 1.352628464247999
-8.567065983880951 -10.330399832910867 1.315435787335446
-8.311967958295213 -10.332928086562415 1.284783057021031
-8.112970649710800 -10.300902714634059 1.292449500134865
-7.936408868882231 -10.269243768874837 1.270450024230684
-7.715517926674933 -10.269957470546380 1.255848470317176
-7.478518792639938 -10.272841731455078 1.259879491363677
-7.297660739285932 -10.278566441974355 1.230912088175444
-7.000922438198635 -10.281559202303125 1.234080976534614
-6.662183952582173 -10.289969165343535 1.163436143680912
-6.518856185353939 -10.231512640040016 1.161713938465311
-6.351861287065886 -10.219281400858264 1.158915057645572
-6.104827188832460 -10.222091083311255 1.177217612617710
-5.930124631830783 -10.222318971786141 1.178960294435313
-5.784471910719005 -10.228265489551330 1.164520750114036
-5.530274714120108 -10.186693100185074 1.154714865929265
-5.296969012270849 -10.158981220433940 1.141026966116613
-5.137218714634314 -10.160290278205878 1.161987885986377
-4.915693458314457 -10.162472041083223 1.145130485025192
-4.652122264183709 -10.161245808961890 1.159586793277185
-4.324847447942381 -10.144299152627365 1.132199306092502
-4.152678348071844 -10.098683315265202 1.148524202156921
-3.912786712243519 -10.098296869308506 1.153469563936568
-3.740191612544240 -10.097937968976936 1.162277132633363
-3.511482707193154 -10.099478455372616 1.161637758897143
-3.294354971598577 -10.099096106736521 1.152273787031987
-3.138208278150613 -10.101679684088694 1.179910143418653
-2.912588360536808 -10.071822486363285 1.140880107242310
-2.690835986686531 -10.029390697182901 1.158719955327996
-2.501398822478328 -10.034354253756579 1.137220430126320
-2.311520516845383 -10.035802228159149 1.138545207876518
-2.135468770428516 -10.048153403987580 1.158655649945899
-2.024290123837246 -9.970312270516100 1.152243155032920
-13.073451292403966 -10.406024189663277 1.392034983530579
-12.932434628553157 -10.322161454523812 1.401238747560427
-12.754583261128602 -10.318801165008633 1.427731200440263
-12.531167717479843 -10.288876504776802 1.429405038885790
-12.300280507205127 -10.287647995537970 1.444832475406599
-12.097866739917656 -10.288847376432425 1.482347854745882
-11.764947266070482 -10.246874544114071 1.531160845808643
-11.593039499557147 -10.287811772730322 1.510735581388957
-10.659355219033291 -10.153659726098400 1.488618897728998
-10.518726715336594 -10.226784803267225 1.476865722112109
-10.337253780755315 -10.216181528248249 1.458779805648476
-10.050168269256300 -10.165086073054258 1.450969143073053
-9.894314354507710 -10.092184140984521 1.448280875406795
-9.757840730746640 -10.166261112603149 1.435776856479350
-9.430551498648782 -10.169894804221070 1.405424775841965
-9.294723587238774 -10.173002410325903 1.390553269822249
-9.190188348146222 -10.173253044963197 1.400131969062812
-9.007592420418259 -10.146815603842715 1.344186355211832
-8.568817951468109 -10.117351646427490 1.322236429563873
-8.312927181353725 -10.123775284321422 1.250578989925799
-8.113640731667971 -10.124714059908477 1.278517538135077
-7.937063890532770 -10.094711813993300 1.242867914143289
-7.706010835105995 -10.067898927536088 1.235958587274354
-7.479603872741104 -10.063110364055007 1.225414421660190
-7.299153605432656 -10.067785224544615 1.208555285955555
-7.001984841400417 -10.071810819886654 1.200265288265513
-6.502228340460811 -10.018596760744320 1.163131695129465
-6.384133067847139 -10.043267085478050 1.143248514075282
-6.105928080243259 -10.012141241861034 1.152076248351989
-5.931371792174844 -10.011931214914387 1.150319239400005
-5.785877884412279 -10.017270077174903 1.141344529669880
-5.531368525926196 -10.010450559060432 1.142958346475581
-5.290700771843796 -9.967474295099214 1.118393677032060
-5.138556490373859 -9.949555437291245 1.135823263368337
-4.916767871338078 -9.950546557301015 1.132278175453393
-4.652736747804565 -9.951880317355872 1.109760264565608
-4.317391423749288 -9.953576200296723 1.110876347139680
-4.153615721234298 -9.922281475261173 1.129511149383660
-3.914013226245134 -9.887453175921934 1.130301061470561
-3.741111172357701 -9.886753780849542 1.138938846605640
-3.555249709296642 -9.890129451468919 1.126851459763657
-3.328453806610198 -9.888054968911103 1.126964913544441
-3.139377986953712 -9.890381076260631 1.154365489648455
-2.913500953726575 -9.895334015335859 1.124936843552803
-2.691543014844632 -9.854436429911004 1.134972253743655
-2.502925686112659 -9.823384765447368 1.119734520971008
-2.312541716515095 -9.824758045828890 1.107666957411482
-2.174053944016271 -9.828949750709270 1.135741903315477
-2.024519575106834 -9.829026920697650 1.129521117540975
-1.586368506837487 -9.793679411506876 1.157846771592261
-1.276783059490040 -9.786711640311175 1.151757908295593
-1.070824906421918 -9.689091784554767 1.141607486045302
-1.000817422575794 -9.690999212579049 1.136209891407987
-12.933526757623550 -10.145830208178253 1.386977463736201
-12.755538352286564 -10.143422426354928 1.413570164845453
-12.532291133493441 -10.078833606801947 1.394242487957541
-12.302289758612581 -10.074155151428567 1.449838746259985
-12.099225501830915 -10.077826873227750 1.460510604614313
-11.766073773477391 -10.073095237104592 1.501142568370256
-11.553883039013026 -10.062980217120447 1.501865663931824
-11.354368821927398 -10.060486163359286 1.504452279006216
-10.917309824462432 -10.011683170807533 1.490723788851710
-10.680827176764655 -9.995360943673621 1.481477426310647
-10.530999370303238 -10.002610770316601 1.460740347210390
-10.327510820189513 -10.019400945786639 1.443304055279583
-10.051418727866025 -9.988399583486814 1.444531529104466
-9.894196951935985 -9.987471146195716 1.430518809789476
-9.759100200235665 -9.955693105826894 1.416120062262706
-9.432220651903744 -9.960481522854582 1.372970322915990
-9.295867539748873 -9.963365657135217 1.360496926260254
-9.191033348961451 -9.962644283791356 1.373613118026356
-9.008854555944048 -9.971276281111944 1.331433167801407
-8.569766454665373 -9.906830878844115 1.292740659921662
-8.321409015582180 -9.918273902559040 1.238023552941371
-8.145463608597403 -9.894723998013818 1.257187023030809
-7.938235612185369 -9.917627621815681 1.232093015064692
-7.746156877777643 -9.906273725159366 1.230262909045337
-7.531010986250627 -9.884469811506808 1.219425925863874
-7.324680369225301 -9.850579652935725 1.180783644280410
-7.003179680192889 -9.860668024985930 1.183093557928316
-6.496767605430303 -9.863761428386319 1.148484127839765
-6.106882909599059 -9.835369055593093 1.135126073162667
-5.910241876878252 -9.819128557694860 1.129585352314820
-5.786609444484507 -9.841434108119092 1.120106992452520
-5.532796142541705 -9.799828347541441 1.118491422074641
-5.298976887014802 -9.806750314312950 1.103170660153239
-5.128906064148512 -9.753467324655190 1.108647734072548
-4.918055000347215 -9.740406011451981 1.101803240864797
-4.653469228360811 -9.813484609396181 1.078793572595458
-4.318549238003228 -9.743282887482284 1.081483932273017
-4.154568833476371 -9.747045109337130 1.103852830366662
-3.914932296312531 -9.712341971702791 1.103153413853818
-3.733555539470987 -9.691375898151277 1.103927534304745
-3.556376760498368 -9.678835243783663 1.102676736636852
-3.329767825842013 -9.677622634977114 1.101077644770754
-3.140212044996722 -9.681044215607827 1.117229447584009
-2.915083805548419 -9.684251314462458 1.106458980145476
-2.692224671773395 -9.680616613136763 1.091914987732167
-2.504130578189048 -9.647862570561902 1.099252429704080
-2.313537031780137 -9.614529881311372 1.079391641814368
-2.175144702217977 -9.617557944176665 1.107729707285415
-2.025955374713598 -9.617371890138882 1.106348674453045
-1.587205035886542 -9.619100198459559 1.132121523839601
-1.302849958121018 -9.627848686478689 1.137525226490283
-1.151604191757882 -9.576010317347196 1.127442068303736
-1.000870422387840 -9.549224024115805 1.118823953520177
-0.828370139389889 -9.483010206056347 1.124738195958116
-12.892302945835283 -9.933718280824602 1.390009709101776
-12.756659516729233 -9.932680056218082 1.393413505514332
-12.533264089593320 -9.902269565852968 1.395335564441552
-12.292709300082198 -9.879305536473712 1.411927861869287
-12.100785832981561 -9.864896234900383 1.462983519736355
-11.767269297371609 -9.861595994593380 1.484622151038963
-11.544912328603885 -9.866369100926747 1.482988054236074
-11.343526494872737 -9.863644786178233 1.492229678852880
-11.186258396017205 -9.796414005931382 1.493664450880090
-11.007007978351016 -9.834879704815943 1.485399894944322
-10.745714068051683 -9.791712249005908 1.466415935705726
-10.521540881568981 -9.804805114670160 1.448801053506372
-10.328878540936945 -9.807328197897393 1.436994349765939
-10.052277184311315 -9.814177599271730 1.418165787986709
-9.895653322361358 -9.811736563888060 1.412632402482984
-9.750852344842084 -9.760141429519251 1.389317862750772
-9.330950047982643 -9.752380060703135 1.337225763779145
-9.192796462094844 -9.751471648076112 1.359132993678003
-9.010220732924576 -9.760602340245367 1.308954638040802
-8.570829019777104 -9.697072988336657 1.258904709125773
-8.334216209038694 -9.709484316246009 1.214622620929845
-8.176679990345800 -9.701408262508380 1.230069863951655
-7.939683576333713 -9.706900342062241 1.211938153701766
-7.760636556781987 -9.708549267918350 1.207570651650457
-7.582017834089059 -9.706351751904418 1.205279379533692
-7.337847372183854 -9.668590161161072 1.172180892354902
-7.004541493300111 -9.649308812527668 1.161597872917611
-6.667496147732362 -9.580324964421397 1.160031913925280
-6.468054952116005 -9.687768233841588 1.138866296608171
-5.888999684502413 -9.660425232320833 1.119940717573769
-5.249804032273931 -9.663551702454958 1.091685708147082
-5.140043445262742 -9.633463958273218 1.090067286071758
-4.655621533956913 -9.529036736347821 1.071755986725606
-4.319610178977041 -9.531583040230984 1.059428300928118
-4.155633647112510 -9.535990575188045 1.076329022725929
-3.915969399708930 -9.536385625469197 1.083314716374360
-3.751815805419150 -9.523599998333573 1.070130566439786
-3.548604562096323 -9.480592239337302 1.092966946676455
-3.358803539335070 -9.466411100003311 1.072754802753252
-3.194190156691472 -9.468880258664637 1.077691179879366
-2.916084742919767 -9.473764482207113 1.075274320912200
-2.714830946079224 -9.488139424047775 1.068643053059247
-2.541355022169118 -9.461485090650672 1.072506853091880
-2.314699003432046 -9.439757852089354 1.054383382928421
-2.170650592715353 -9.420823412937231 1.091307381086580
-2.026892517472272 -9.407875927751316 1.075878407375740
-1.588350239496576 -9.408738056877610 1.096951368967353
-1.314705603759953 -9.409016127778767 1.092747860295589
-1.160302324187586 -9.407439907885859 1.109986254192506
-1.002200126284229 -9.374669104764397 1.093446878693356
-0.829068717030551 -9.343335245106275 1.105417917443617
-12.893358939520979 -9.757879663795318 1.369083717737709
-12.757955918634703 -9.721953761454859 1.372933072475263
-12.535316213867951 -9.725135870389142 1.394749780959842
-12.314390747223957 -9.710767838619399 1.400491588358335
-12.102165055115965 -9.687247615405287 1.468226327932939
-11.768498069054512 -9.649554807147959 1.476766953339734
-11.546459840340876 -9.655294066191622 1.469834225136367
-11.344829583312546 -9.652251844498746 1.472402650113821
-11.187044269021836 -9.655189064718707 1.482974857431344
-11.008084808244732 -9.659612753761078 1.468143086713638
-10.735853369459345 -9.600906379186153 1.438640772887197
-10.522822394594407 -9.593947312954786 1.433641722349677
-10.319168448605055 -9.582382746428664 1.414095411571765
-10.053772431481999 -9.602347391724377 1.402638108335935
-9.897048607019158 -9.600156387707434 1.399780326654138
-9.770512471296552 -9.589485338744149 1.386924222601436
-9.361443001073841 -9.540746789862467 1.327580495817443
-9.219501600851423 -9.541241161946418 1.318692993348265
-9.011501345478329 -9.548485166954297 1.290439115080403
-8.571954267312574 -9.521858329210465 1.240019409173868
-8.380648362166884 -9.490081596674578 1.201146406270368
-8.165477856372913 -9.505261886110803 1.202748535477951
-7.941089739999341 -9.493355886952791 1.210575972821800
-7.784467677411711 -9.513765031134392 1.185542240767404
-7.572070275004482 -9.509611362358680 1.186154070290655
-7.436913836404295 -9.573795202980858 1.164708523622465
-6.667804861946553 -9.510347148901200 1.156207238833474
-4.656277927437013 -9.352261289716882 1.067817697118215
-4.317048841027311 -9.388964170456337 1.053920373812815
-4.128274022816643 -9.343413250893184 1.054652798197310
-3.917395629576279 -9.324980003562377 1.064642751010439
-3.744292235572604 -9.326532136615754 1.048118504843245
-3.567640717174958 -9.312319496717077 1.065770322990971
-3.360054733359518 -9.290561127907061 1.054287664148120
-3.195446818510939 -9.256765781152673 1.059835519855596
-2.917541758625572 -9.262136407599806 1.051452705848732
-2.737484349748187 -9.260590168035487 1.046435696024730
-2.581713868812300 -9.268095719605110 1.043204645167748
-2.360472241055631 -9.262295096802017 1.045676579365477
-2.204945094692381 -9.244138411287150 1.057446534344933
-2.027939152942726 -9.231432701339099 1.051422903875704
-1.589785716575569 -9.198692857088300 1.062470293345370
-1.315871954313685 -9.197691373275955 1.062557984348388
-1.161466070152605 -9.196938527753893 1.081329299594103
-1.002878375925977 -9.197679364597963 1.070976105804249
-0.829658227061485 -9.168665208243738 1.082514359546224
-0.464197650502300 -9.164408070158755 1.097156835441950
-0.332040078548123 -9.087648538951939 1.086656860723622
-0.222421790881895 -9.062076313280549 1.097553515455076
0.313875496842530 -9.063734644809156 1.078869052900160
-12.759435891324284 -9.510096130079724 1.358084788603037
-12.536438025637047 -9.513245247295629 1.380568773118625
-12.315897923418042 -9.526830780964307 1.390489741023657
-12.140885282331819 -9.495252250380672 1.428013060042588
-11.770119125813231 -9.440106141553787 1.445661179650386
-11.547684647382372 -9.443531349828486 1.457161594185095
-11.345954885195276 -9.442139949278786 1.446567234910106
-11.188333906445163 -9.444783433735291 1.462472561589806
-11.008586142047637 -9.450020834927011 1.440347648960710
-10.759940863307527 -9.430173896970903 1.436289633434512
-10.513277614440810 -9.395003910407951 1.434011349060569
-10.331387190590412 -9.385938430708558 1.393319609624456
-10.054970869480201 -9.460950184676699 1.399325419021608
-9.960846124208992 -9.376829938498618 1.376587989273105
-9.762471261055097 -9.394114305801452 1.353978114337338
-9.353229055757453 -9.338763103015326 1.305045169461209
-9.220748746873479 -9.330598948511529 1.294699699909359
-9.012679972333398 -9.337901321688982 1.263942576891083
-8.573201398229337 -9.346016495201528 1.218769693837999
-8.403528259335538 -9.349364085847975 1.197587687918229
-8.118728372825021 -9.280944123462467 1.190854287606157
-7.899264911956082 -9.318108441123623 1.193172802693852
-4.101026875400694 -9.148959138426136 1.041099098836924
-3.918545943772053 -9.148825530624725 1.039227509966736
-3.759880129993756 -9.160723143211230 1.033147707847178
-3.559666619695236 -9.116246596630905 1.039504540646220
-3.360726957812804 -9.115315122585464 1.023604511488912
-3.196399965494055 -9.081246147387809 1.032257960538573
-2.918571580900010 -9.050166429310799 1.039918930654238
-2.738648774153034 -9.048028854357096 1.031918298078665
-2.603341835597145 -9.045938968571846 1.018450248626806
-2.384072511456760 -9.050513653573617 1.028259568080927
-2.205884258296746 -9.052891356833609 1.034561256663324
-2.029230178618135 -9.055073355357322 1.038679267754645
-1.590847666606542 -8.986988137226884 1.040614760075130
-1.317091013628059 -8.985532718689260 1.046021111053960
-1.162612998095256 -8.984961568940964 1.059709829255723
-1.004486965150240 -8.987297491117870 1.050515599072696
-0.831112321155811 -8.991806298062711 1.056590792875170
-0.355131076403610 -8.953670430664502 1.072491830763994
-0.236367675752343 -8.902896535647226 1.071338264764222
0.312546277010001 -8.991742534710752 1.077029141430330
-12.783038168249060 -9.316309138222209 1.352900528310528
-12.537580313311103 -9.302744315599849 1.364072654360740
-12.358024102464135 -9.299367008986703 1.393748213164599
-12.180237676235603 -9.302352316270195 1.399309120762041
-11.771335255194938 -9.264427045613033 1.425065264915645
-11.549107405938070 -9.233592194028020 1.432191902159218
-11.347324855242817 -9.231684110327183 1.428258514877484
-11.189624636125828 -9.234415251904199 1.441670999365328
-11.010653587960356 -9.238142842101308 1.427841556503267
-10.759265155999064 -9.248674879319466 1.417096704522862
-10.557694158211326 -9.217198072153845 1.413486986872186
-10.321506207539844 -9.188605623754135 1.378865560730134
-9.977848020810242 -9.178647444094532 1.365873133990164
-9.763613533270277 -9.182921735656851 1.338324691999190
-9.373875204346383 -9.168188914056440 1.294660468528548
-9.221870022464234 -9.155003680898133 1.276625069682524
-9.013782659721265 -9.126688679683722 1.249438341727426
-8.574787332359922 -9.133084882079380 1.220923172679676
-8.120194150721304 -9.103260121118490 1.184257922683173
-3.514833069024259 -8.941150895939931 1.017185697872321
-3.394270627811191 -8.974205101670275 1.013331161287823
-3.171050183609187 -8.923999476554307 1.016722546988603
-2.919864561082510 -8.840245833347158 1.000101066717122
-2.740174175142363 -8.836892713467023 1.015098609440884
-2.604514613701915 -8.835141108693250 0.987613774085759
-2.385348172098420 -8.839780208652705 0.999069936245377
-2.206603213119261 -8.842672468013532 1.001722199304538
-2.030652062386850 -8.841928656949438 1.036156995732597
-1.591986607538368 -8.810163346519627 1.032668199254545
-1.318561203775935 -8.774937525089650 1.020535409677194
-1.193299185047510 -8.773398401236054 1.037801467792576
-1.040898260872376 -8.775010903464457 1.030529865277913
-0.832320596115756 -8.780652214337419 1.039088921610698
-0.396134789416837 -8.777076861351311 1.056104073371387
-0.219832115833700 -8.744421909450667 1.060442628984390
-0.040257484875537 -8.711341306560094 1.063304486533980
0.218108164272979 -8.673920734003135 1.066984691089914
-12.806383665574735 -9.157156210514456 1.343299720757273
-12.538743664635401 -9.091236896266690 1.348231547021470
-12.359575493013249 -9.088606404172150 1.375958338359766
-12.181296650278274 -9.091182917090633 1.376446538381231
-11.772279799249500 -9.087621726982416 1.422477531456707
-11.549851465350653 -9.056365860627674 1.426393097621627
-11.336694801614467 -9.034388084051546 1.409675366147695
-11.191274442816898 -9.020838752050732 1.442478544553410
-11.011373418929296 -9.028489455244380 1.403365291187896
-10.792331511472241 -9.028876909926755 1.403073322956544
-10.601570788695778 -9.039606276760825 1.395051379168365
-10.381306435453368 -9.012015436123935 1.375345901766025
-9.979341156362000 -8.967717608872199 1.354042467893265
-9.765461802108636 -8.970236177996837 1.337480911724498
-9.364695890205272 -8.977204434570211 1.283580289681794
-9.223064945433780 -8.978396560808322 1.266854424019101
-9.015105786100957 -8.952464193972503 1.224049676141362
-8.575846365619267 -8.919431828301729 1.210697603744848
-8.406530093657349 -8.887247424915966 1.182581329940916
-8.120929874356307 -8.962338550279206 1.174575479400659
-3.145160203134519 -8.767195338005827 1.001720378842123
-2.920566727562174 -8.663048145649402 0.986133777044216
-2.741002573526003 -8.696617422260433 0.992744257895311
-2.656462333715619 -8.655823846978777 0.985730331067742
-2.388489296791486 -8.638186321811462 0.977181579776669
-2.208100247441474 -8.630544789381114 0.983634358768256
-2.031579593884646 -8.632871380266870 0.987010103385273
-1.592818317159730 -8.634502672202760 1.004081751177580
-1.328951389163648 -8.610131105562431 1.009573336595878
-1.204309300234573 -8.562223424717693 1.007028382278747
-1.042270953503979 -8.563353519443609 1.013851338802567
-0.833492291201277 -8.567435025333721 1.025195202023099
-0.397407453181262 -8.565751130626875 1.032263923524454
-0.220839063862011 -8.568750865176824 1.034644676732228
-0.041412585986567 -8.535265087728911 1.044898130878096
0.189475921180043 -8.507236142987658 1.052326356175342
0.361794687133020 -8.464712975115042 1.037477321071293
-12.539854715685127 -8.950942644703529 1.327588188455223
-12.360998289396921 -8.876931506145249 1.352754892047869
-12.182592143238683 -8.879984272923661 1.361328812327855
-11.773485893880792 -8.874640152472903 1.425947703814131
-11.551257166576953 -8.880202034440572 1.419354009031082
-11.361826093815381 -8.864906879628467 1.409715672677152
-11.191800859804797 -8.845861825607766 1.412387912560575
-11.012715973672254 -8.814907606140970 1.403811633350131
-10.793805096078561 -8.816537410741709 1.393557276757775
-10.624540004163787 -8.818740798904535 1.372029225552751
-10.432206143042553 -8.817397571702397 1.383284720338793
-10.279557485105844 -8.826335450731488 1.322785577596278
-9.964765140694386 -8.771113807269876 1.330825364741344
-9.766616107660933 -8.758555935017400 1.322135436467789
-9.366147012724994 -8.765257377020017 1.272722455862748
-9.224361868412341 -8.766175289990942 1.253011191468602
-9.016248541541156 -8.772582045235893 1.238234276978631
-2.657243118236477 -8.551087881808105 0.971001886604796
-2.317201073846506 -8.450542804684209 0.958004324747293
-2.167814454395317 -8.439689426526517 0.975505139600159
-2.032990489249946 -8.420961918534086 0.974139935267289
-1.594425978236610 -8.422740848458432 0.985576950305045
-1.349256187040907 -8.420933296935667 0.990320778246911
-1.227809233602810 -8.397682029794693 0.992467188492753
-1.036281533709709 -8.365967383974805 0.983236281539604
-0.834773130704835 -8.357038756083695 1.004702853771931
-0.398598097914554 -8.353987974077903 1.006918028836338
-0.221903398851736 -8.357275267231243 1.012434887255750
-0.041971385172475 -8.358205906366340 1.025434234359636
0.168275386878866 -8.321604103531335 1.031466859594218
0.371206122966177 -8.302628273033925 1.021881254553534
0.656557854398134 -8.289025619356373 1.029907597538738
0.969750198731243 -8.278082198177085 1.027622447867259
-12.361518313023680 -8.701960115903550 1.322834343785644
-12.168926406973430 -8.681851571457328 1.358432782981566
-11.774976521089197 -8.664390958630278 1.399460819889299
-11.552726037106513 -8.668666515744782 1.404824072710795
-11.380970968537952 -8.684164308522469 1.411754241253306
-11.232398696341829 -8.654472859348246 1.408070183108521
-11.014276701671282 -8.604500858254633 1.384680070397309
-10.794958395315824 -8.605011412080604 1.378045645918576
-10.625806640593765 -8.607365726067847 1.357516450096625
-10.433107222794316 -8.608301924300051 1.343795090957428
-10.280738809737702 -8.614258662636367 1.316289085667648
-9.997342208171538 -8.602105221076993 1.318335883900517
-9.758991252126396 -8.560584923066557 1.319154310131154
-9.376015230925940 -8.563445501239421 1.247119549924861
-9.236048777018386 -8.545287194948028 1.234909516420714
-9.018145839138615 -8.560570978808073 1.230413223471629
-2.154864439295502 -8.210975777705507 0.960882404531304
-2.034331012061421 -8.207746188409583 0.946248823384337
-1.595674502092311 -8.210488714818172 0.959049150201366
-1.350364562642508 -8.209053962666697 0.976469911332941
-1.220898354112665 -8.208872760455741 0.976608542731867
-1.051616964226116 -8.195764868206435 0.977870808495140
-0.836292363126428 -8.144182179028927 0.989829766621853
-0.399582958219701 -8.143253860063334 0.971912699732542
-0.223279871790043 -8.145523202561906 0.993912259296252
-0.043212948119448 -8.147307618325126 0.997590378543038
0.167388368202750 -8.144885891014379 1.012193520711520
0.349237951012462 -8.132783276108784 0.998989861924059
0.655451060061590 -8.078954990436806 0.995434396822333
0.824905656515409 -8.067880119164013 1.015912124307732
0.950523521071424 -8.083645190926600 1.010086764172456
1.156922836496371 -8.120379276738639 1.020707693871287
-12.362755181728190 -8.525879762996418 1.311267241083840
-12.110170618952228 -8.455405080139375 1.367333730616167
-11.776349733479414 -8.453050632616918 1.377625703945142
-11.563680284131163 -8.471655958673875 1.379444952479162
-11.435027744044199 -8.437586118088840 1.390164939264650
-11.243594017983682 -8.456436661626984 1.397166400533933
-11.015746070930135 -8.428555543656080 1.375797168348925
-10.787813771440135 -8.407843762566911 1.364472223213909
-10.627306486756513 -8.395307927885879 1.351662178860295
-10.434658134600653 -8.396888442080801 1.330972836494908
-10.282558529473050 -8.400804726563599 1.312431327363242
-9.998440611442188 -8.418123678717119 1.308558824928724
-9.799536974769079 -8.381572545518260 1.300905486500454
-9.403634815844878 -8.341760060281224 1.237290727407952
-9.250931925365229 -8.343231111862657 1.218503928973746
-9.019008467878177 -8.349650408671467 1.203576522744640
-2.156206441086776 -8.034809679695073 0.946484030770193
-2.035171175534766 -8.066326237695552 0.943593665126656
-1.596828821608061 -7.997353408926514 0.954826170929039
-1.351363665192394 -7.998786239325707 0.935962051366118
-1.222069775085997 -7.997820476001950 0.945935516328575
-1.045538698694533 -7.998888287061385 0.953652077195272
-0.837431833636560 -7.968341014124688 0.962240279619010
-0.400596318963754 -7.931577865025179 0.955721613740337
-0.224670987671671 -7.934312609226222 0.965204623807040
-0.045032091770646 -7.933873916586801 0.993723120773495
0.165858407277919 -7.932659104578107 0.991681928025798
0.358502045251650 -7.935919773747322 0.978013412751181
0.654013134293111 -7.900578425997768 0.990480494076536
0.828094011508330 -7.869630314610280 1.004930865370341
0.949061137893878 -7.872215029247245 0.990444494352346
1.155518543230243 -7.872846174766840 1.011278051372500
1.707900322807827 -7.871971840620928 0.997290612918675
-12.110347322676869 -8.315794775345104 1.343993111792969
-12.110797396716844 -8.245911988452619 1.336162043315653
-11.777359271142114 -8.241768098159650 1.365788927904617
-11.605644750769923 -8.246489079915484 1.352919565037496
-11.458937958420993 -8.244928063168940 1.377113487547234
-11.244784496488286 -8.244867969655242 1.376129691325815
-11.016574187130253 -8.251892981640294 1.367183375306439
-10.805845903854124 -8.238061612869831 1.356048925412921
-10.619889776654460 -8.198473687795993 1.329309636823780
-10.435927833652283 -8.184356372797705 1.322795910693230
-10.283699429707834 -8.190333753715251 1.295935945133152
-10.063083994335290 -8.190618701879281 1.330249328891256
-9.815593757135748 -8.192889838343470 1.292208253997472
-9.404841077992010 -8.163957334181566 1.242773695961887
-9.252513723980389 -8.130951955547289 1.207551871122405
-9.020649324991325 -8.137687377347723 1.193725848606420
-1.598059289334000 -7.786693577815553 0.917669307478519
-1.352483863712364 -7.785872113578449 0.923085436377988
-1.223233831997496 -7.786202702651011 0.921143026387000
-1.046706656567440 -7.787037740674908 0.924079080743240
-0.838178718168431 -7.792430694271314 0.936316871498747
-0.402278709072442 -7.753828428555757 0.945677812302421
-0.225914259641533 -7.721800976898741 0.945556394463864
-0.046007692367351 -7.722345781352889 0.964522207278662
0.164545139806573 -7.720818096088855 0.976658096297172
0.357170488830906 -7.723871824726151 0.958000053777397
0.652956904713080 -7.723751653963546 0.975534334702616
0.826943222153842 -7.693270822151199 0.991521699570853
0.955340440918270 -7.674366348811144 0.973209949182234
1.154062725064931 -7.659480504839514 0.989703047550393
1.512391244733156 -7.624887159844080 0.974792109839711
1.730418798979336 -7.660902339918241 0.980123506434722
-12.111922284454895 -8.104941899314337 1.316152078874779
-11.778509265375888 -8.066034675883742 1.346870880504127
-11.607292636370477 -8.034496100059481 1.343078361156898
-11.460552054086993 -8.032644247096977 1.372928874648466
-11.246248371913946 -8.033810926158118 1.355976754691341
-11.018285159081913 -8.039055409817246 1.365339874441275
-10.798613256024304 -8.041337698330324 1.334036016049879
-10.638224690575608 -8.027571499262766 1.325061556426050
-10.437210078405645 -8.007626398824129 1.317779619962835
-10.285265839240616 -7.977602569169392 1.289085420855344
-10.063928252738570 -7.981189870821865 1.283432022116159
-9.817177169469815 -7.980310670213186 1.284501487397591
-9.405921631478343 -7.987775479733246 1.221599340167302
-9.253594338294594 -7.954020697524614 1.201382179378612
-9.021696837042082 -7.925736079396756 1.181872875797893
-1.354351021037600 -7.573496729835089 0.916585051435618
-1.222397959075217 -7.579646768403375 0.916822749480502
-1.048055596942334 -7.575312611557321 0.903594330097917
-0.839622991965379 -7.580556610460837 0.922477871980078
-0.474102122661599 -7.576694678370597 0.933965587503536
-0.262160919398801 -7.555775306447394 0.933103054685802
-0.047271007254189 -7.511484480893033 0.936029461046047
0.163456696096904 -7.508144441796887 0.959642729672225
0.355993409235020 -7.511440119558886 0.938641883426016
0.651885857242159 -7.511140943937100 0.963664905931012
0.826104889511247 -7.516209263353236 0.978383512846136
0.939793699380461 -7.504600352625271 0.950486756722313
1.153362888284379 -7.484683622601530 0.959132722259994
1.511079409409517 -7.447670024026879 0.962357039038750
1.729204944132157 -7.448604407970048 0.968427412388564
1.919548002611640 -7.378634595751716 0.978644939036741
-12.113226411458598 -7.893518737017960 1.296334304091545
-11.780111471902853 -7.889250623455684 1.344657003730362
-11.608341092546741 -7.858365455597413 1.327499551028296
-11.461817237838893 -7.856474959922261 1.351591133638294
-11.247547986923323 -7.822736414050386 1.335817624246317
-11.019318699186339 -7.828257448808758 1.333837906272123
-10.800022669254709 -7.830048865284130 1.315877009322492
-10.630927161195888 -7.831682639655810 1.303989137703127
-10.438283829842231 -7.831161027831559 1.308939342857002
-10.286353413953226 -7.801100724847622 1.268313316453913
-10.065458056704593 -7.770041293019224 1.266311875599456
-9.864269603170598 -7.766040477633601 1.294855339822448
-9.727174561125011 -7.770961937770700 1.257175402499769
-9.407462134925634 -7.775682523893089 1.209920023701528
-9.254815242498154 -7.776878924123263 1.194671356391751
-9.023266174782790 -7.748239960185026 1.181270746379766
-1.355432654755627 -7.395996688563313 0.901782290679222
-1.182194078557372 -7.375092594063551 0.912921818763891
-1.064480349888483 -7.351633194663991 0.901239864146731
-0.840782463916001 -7.367896660423462 0.898929124669593
-0.474991226600490 -7.366349827736812 0.896795046923046
-0.254583423137450 -7.367263160623741 0.919380963323249
-0.048294182357988 -7.334973905936852 0.921600918141621
0.162396442833377 -7.331035020683801 0.949684058073586
0.354618686046476 -7.299343814039680 0.926786528085387
0.650552246818884 -7.334170965411037 0.941217536536868
0.799819732469159 -7.293173115501855 0.959884527174523
0.945595280859070 -7.306679071519124 0.940363745231139
1.152195511594939 -7.306896058213958 0.956186709734055
1.510037382690881 -7.269683811676838 0.968069693290829
1.748638357782792 -7.227416303603416 0.954005674574518
1.933566201497684 -7.213430918970097 0.964337735192942
-12.114542992326420 -7.680394873769993 1.305800312229508
-11.781090765150090 -7.676571068055186 1.335415072147526
-11.609747078664057 -7.680400845131143 1.332204509436025
-11.462611201130088 -7.680605771650933 1.337932115954629
-11.248953474904337 -7.645138021055015 1.339881541691341
-11.020942782325843 -7.616156614999271 1.315304777117632
-10.801334332992287 -7.618993023199263 1.295388474477903
-10.631887028019602 -7.621536989705787 1.273512650655647
-10.439544518239511 -7.619836644996656 1.285429124478355
-10.287507137557398 -7.625078321667925 1.254232437763392
-10.066411818796634 -7.592098855802412 1.269670356091325
-9.856674873581827 -7.568547588186384 1.287553668693846
-9.728223420371734 -7.559010946936660 1.245312475257947
-9.408611572237124 -7.563506294172150 1.200076631182611
-9.255464263941938 -7.565633777667291 1.185115151813250
-9.024494924587113 -7.569339854815730 1.182962165244732
-1.356030006864553 -7.291107126674017 0.892548655093663
-1.283865185556306 -7.205177582985282 0.896385280042551
-1.098882432345358 -7.191657374672175 0.893394923765413
-0.842603007503265 -7.153866598939498 0.905065825021410
-0.476504469036635 -7.152340898849499 0.901900598199433
-0.255961754651758 -7.154456973906452 0.906265952607328
-0.049258480345559 -7.157396158170691 0.910145214902968
0.161044622843811 -7.153250253709366 0.946564388288976
0.363623078759340 -7.101111803217837 0.908605976570016
0.724703541943441 -7.088973035716132 0.931532830569068
0.911624629642716 -7.092746349672890 0.937526091375958
1.150721572502346 -7.095962678899699 0.931022592510914
1.508708413263212 -7.093533172690364 0.926135064951893
1.753889307745045 -7.044771653545535 0.940208272147686
1.922866696299255 -7.024565475397573 0.955018224816513
